1.325738770033763672e+02,1.328368908978534932e+02,1.331142524377277141e+02,1.334577457281724833e+02,1.338311260719130473e+02,1.342535783940605825e+02,1.346600707764604294e+02,1.350362125270656293e+02,1.353496523161888945e+02,1.356353011313486263e+02,1.359291825787735775e+02,1.362552456314824667e+02,1.365882832951519390e+02,1.368744178972957570e+02,1.370957809238649929e+02,1.372751835532696987e+02,1.374461521882815873e+02,1.376230378012302253e+02,1.377986592829532242e+02,1.379921139534246777e+02,1.382069688094717890e+02,1.384133690564465269e+02,1.385970223607855019e+02,1.387508021361996953e+02,1.388759288411972648e+02,1.389903022487179669e+02,1.390915393987960442e+02,1.392106142082919291e+02,1.393225139406328594e+02,1.394343835635432356e+02,1.395224320773102136e+02,1.395997499030606832e+02,1.396913267233556439e+02,1.397543488993782148e+02,1.397602960729760184e+02,1.397103574251430018e+02,1.396354306858541463e+02,1.395938003830503931e+02,1.396164001129494636e+02,1.397329470606910604e+02,1.399112683337332896e+02,1.401073294647405874e+02,1.403187333371218415e+02,1.405312035281411909e+02,1.407210214264619026e+02,1.408846628644054704e+02,1.410126885286342144e+02,1.411157868847027999e+02,1.411939784333595185e+02,1.412804445147236265e+02,1.413822828068196600e+02,1.415030272269025886e+02,1.416142635542551034e+02,1.417124554332144726e+02,1.417917018098909807e+02,1.418827544856572445e+02,1.419926955691478270e+02,1.421321362224688869e+02,1.422809664384985240e+02,1.424521591516000854e+02,1.426515794413837170e+02,1.428933156887119367e+02,1.431407586221113206e+02,1.433621175902779896e+02,1.435656757330156665e+02,1.437620447920980382e+02,1.439606322937550544e+02,1.441367799292258951e+02,1.442424158996672645e+02,1.442776179571123407e+02,1.442377243483609845e+02,1.441637809878332632e+02,1.440005680626079538e+02,1.437902535226652958e+02,1.435656757330156665e+02,1.433856621091317720e+02,1.433079709669348745e+02,1.434280233443646466e+02,1.435221488404085903e+02,1.435786159263267905e+02,1.435198044935218604e+02,1.436009665185043218e+02,1.436962116311568138e+02,1.437643980134538424e+02,1.437067961433848495e+02,1.436197803648117883e+02,1.435433261260250788e+02,1.435797932590477330e+02,1.436915112700655186e+02,1.438172939354197410e+02,1.438866178411136616e+02,1.438948433899241763e+02,1.438266870221099794e+02,1.437444129757663518e+02,1.436691673999840759e+02,1.436750450721314110e+02,1.435856726752365944e+02,1.434750933060148554e+02,1.433209220419627172e+02,1.432738321483708432e+02,1.432149624669964965e+02,1.431666776876264748e+02,1.431207400679561488e+02,1.431525412602698566e+02,1.432090687797911528e+02,1.432997294190315074e+02,1.433962502709178466e+02,1.434997996234490643e+02,1.435656793226049786e+02,1.435609733344536494e+02,1.434680339911800502e+02,1.433209220419627172e+02,1.431419412191665970e+02,1.429793628094611790e+02,1.428296656657199151e+02,1.427565599303673594e+02,1.427376870898354468e+02,1.427966484938027634e+02,1.428449892983311429e+02
1.325243968301459745e+02,1.327934674787726976e+02,1.330817013213912787e+02,1.334059351082131002e+02,1.337396140308493386e+02,1.341140049627115332e+02,1.344688924381263746e+02,1.347983005209558200e+02,1.350614343612305106e+02,1.353196338450409257e+02,1.355981001686350282e+02,1.359291789191947259e+02,1.362732238607251816e+02,1.365703240717737117e+02,1.368014071876316393e+02,1.369904966474761636e+02,1.371842918235083175e+02,1.373816003299666022e+02,1.376110878284636669e+02,1.378464302634275782e+02,1.381067158708401621e+02,1.383501463310969370e+02,1.385684074886654571e+02,1.387496090999056264e+02,1.388818885935118033e+02,1.390010224951379314e+02,1.391094056783721840e+02,1.392177609645705729e+02,1.393058518590614767e+02,1.393701208762803390e+02,1.394189098611839199e+02,1.394795920671353429e+02,1.395735771762128934e+02,1.396413759699798334e+02,1.396413795995529767e+02,1.395676345362190887e+02,1.394474709362655176e+02,1.393629767336176428e+02,1.393713085281254962e+02,1.395045798922033100e+02,1.397044058903038035e+02,1.399183956247746892e+02,1.401346529293387562e+02,1.403472268910616663e+02,1.405335791852248235e+02,1.407020431520547277e+02,1.408384281892286936e+02,1.409498694989839578e+02,1.410352099429502459e+02,1.411252675014080182e+02,1.412354374133421402e+02,1.413621494060982400e+02,1.414781648974941390e+02,1.415740287414209320e+02,1.416462076791759728e+02,1.417302012338295754e+02,1.418248172281599295e+02,1.419465948843950400e+02,1.420907780022650968e+02,1.422573414984517512e+02,1.424615966609869133e+02,1.426810620316871905e+02,1.429145283742208221e+02,1.431242700973469937e+02,1.433338689838547566e+02,1.435468585216523820e+02,1.437867311649109752e+02,1.440146648916766026e+02,1.441978179540477640e+02,1.442881777180551808e+02,1.443081288199615528e+02,1.442670649626232375e+02,1.441262181210747144e+02,1.439159942539948247e+02,1.436891574737247765e+02,1.435056841786831114e+02,1.434009587971796122e+02,1.435080358148069308e+02,1.435892009879596003e+02,1.436868072470280708e+02,1.436609427716897471e+02,1.437902606964673851e+02,1.439195186519821732e+02,1.439923490766026362e+02,1.439441882486906934e+02,1.438560694219364677e+02,1.437796755628261280e+02,1.437773260495552563e+02,1.438595909532908195e+02,1.439841262735143346e+02,1.440886431621655674e+02,1.441262145383057032e+02,1.440827737584825172e+02,1.440040914380296613e+02,1.439206910516715539e+02,1.439136422414977687e+02,1.438137647260579683e+02,1.437056193076552972e+02,1.435503836966391304e+02,1.434997996234490643e+02,1.434480293207358841e+02,1.433915416726631520e+02,1.433256281239130772e+02,1.433362255277355644e+02,1.433797788416822527e+02,1.434809783375743564e+02,1.435715590128853023e+02,1.436597585789015739e+02,1.437032620343499616e+02,1.436915076819754518e+02,1.436186031879323082e+02,1.434821560483995881e+02,1.433079745595410373e+02,1.431501905189587660e+02,1.430111781694218394e+02,1.429499001217718046e+02,1.429392897259718325e+02,1.430170647601925680e+02,1.430877528779401473e+02
1.324387032728845952e+02,1.327150531521867265e+02,1.329960924175445598e+02,1.333119391548311228e+02,1.336251977063524805e+02,1.339527213036967623e+02,1.342475643806798757e+02,1.345157898729554518e+02,1.347333921617558303e+02,1.349533090490203335e+02,1.351995532653145347e+02,1.355092959625914659e+02,1.358308436053047785e+02,1.361198171568657358e+02,1.363427278313517945e+02,1.365595423679074543e+02,1.367798502995095191e+02,1.370180102639543520e+02,1.372835550351423421e+02,1.375644810429560039e+02,1.378619531037260231e+02,1.381246155480884568e+02,1.383596883879558845e+02,1.385445542556544751e+02,1.386745139030489327e+02,1.387865589507906066e+02,1.388985710936242981e+02,1.390081728104868262e+02,1.390879704132626671e+02,1.391296478819664344e+02,1.391594134167243624e+02,1.392165619748355425e+02,1.393153689788902057e+02,1.393939204793470594e+02,1.394046340309143943e+02,1.393427494621648179e+02,1.392344265659247640e+02,1.391558450070527329e+02,1.391689411399281653e+02,1.392975151191625969e+02,1.394926816357863686e+02,1.397055962042465467e+02,1.399183992518625814e+02,1.401120822951789364e+02,1.402926112133529273e+02,1.404683048618496173e+02,1.406261278555058425e+02,1.407352572259968042e+02,1.408194594063989484e+02,1.409107555594401902e+02,1.410328374283444077e+02,1.411726524784307344e+02,1.412922809123220986e+02,1.413905642050438018e+02,1.414473907423620744e+02,1.415195951403154027e+02,1.416047992831454962e+02,1.417278332532353033e+02,1.418732901780023212e+02,1.420423245163533466e+02,1.422337185207645120e+02,1.424297277894015679e+02,1.426244452041784143e+02,1.428449857004748083e+02,1.430759750144745794e+02,1.433303413191131881e+02,1.435903782794840708e+02,1.438490154743626590e+02,1.440663294744080076e+02,1.441849050185654733e+02,1.442248132277038621e+02,1.441931256652533762e+02,1.440592877801594227e+02,1.438689934507661974e+02,1.436715213533277620e+02,1.435292140828793777e+02,1.434621523012946795e+02,1.435821443213546331e+02,1.436997386475208600e+02,1.438219887228240168e+02,1.438349178319339785e+02,1.439606358785776479e+02,1.440933443319644880e+02,1.441684773422780950e+02,1.441320830538271593e+02,1.440451931248024948e+02,1.439347845773904737e+02,1.438631160285426631e+02,1.438725148274734806e+02,1.439770754110250550e+02,1.441320830538271593e+02,1.442459363027390964e+02,1.442705814776658713e+02,1.442201178033203632e+02,1.441473449300910374e+02,1.441414731449595479e+02,1.440393228366231710e+02,1.439300844208327135e+02,1.437749693435170570e+02,1.437173731052857306e+02,1.436621126060402958e+02,1.435997820898600708e+02,1.435115614398491175e+02,1.435115650300778611e+02,1.435409783525433340e+02,1.436538841959526280e+02,1.437373599568446707e+02,1.438196359586245308e+02,1.438513608320517392e+02,1.438302124907466464e+02,1.437702738110416476e+02,1.436574152988042670e+02,1.435162753737312755e+02,1.433621247742341893e+02,1.432326284889823569e+02,1.431690390884120916e+02,1.431725685767699474e+02,1.432549934769863853e+02,1.433444589213462450e+02
1.323228151061752556e+02,1.325883648368430840e+02,1.328598160508011006e+02,1.331612747128842784e+02,1.334541349547274649e+02,1.337396140308493386e+02,1.339804085295710934e+02,1.341862014085468786e+02,1.343594366498641079e+02,1.345422405474212155e+02,1.347658436842135075e+02,1.350386101208395644e+02,1.353232355688930397e+02,1.355741024570031641e+02,1.357792672501117295e+02,1.360035286561365524e+02,1.362432683108093556e+02,1.365200207891421087e+02,1.368205558693572357e+02,1.371508051562347532e+02,1.374712568951306935e+02,1.377592314838321954e+02,1.380100182282673700e+02,1.382117395923689287e+02,1.383322557812043101e+02,1.384312635775845592e+02,1.385433679279580019e+02,1.386661720140948546e+02,1.387484196976200792e+02,1.387746367064834203e+02,1.387960841420756424e+02,1.388461324678704045e+02,1.389462187944947118e+02,1.390260317132345449e+02,1.390581961919355649e+02,1.390403277431813649e+02,1.389843440155559051e+02,1.389640875779925864e+02,1.389974418394022564e+02,1.391201156334495295e+02,1.392832278473882184e+02,1.394724570785215292e+02,1.396711119781251682e+02,1.398530301808116860e+02,1.400277373816087447e+02,1.401999866697686343e+02,1.403650379289092598e+02,1.404825464192084041e+02,1.405703637855637567e+02,1.406581610988361035e+02,1.407803246920288416e+02,1.409249733620310394e+02,1.410589017099468947e+02,1.411738346750335040e+02,1.412543850208542722e+02,1.413514968977723356e+02,1.414462094307509119e+02,1.415716669452294241e+02,1.417124554332144726e+02,1.418768370682138311e+02,1.420470489943335224e+02,1.422077327945769980e+02,1.423777880432328971e+02,1.425866940489060539e+02,1.428225810740218549e+02,1.430806847742951504e+02,1.433491718299317768e+02,1.436115472082439624e+02,1.438372633017389148e+02,1.439653319583248958e+02,1.440146648916766026e+02,1.439688593455372256e+02,1.438208159295959945e+02,1.436503566401862599e+02,1.435280401438978970e+02,1.434939221355367067e+02,1.435174529482601997e+02,1.436832800783110997e+02,1.438548931780500197e+02,1.439958689673849790e+02,1.440510668774148257e+02,1.441567345200619457e+02,1.442834869270187710e+02,1.443409741550632361e+02,1.443046056126898407e+02,1.442119015190728533e+02,1.440592877801594227e+02,1.439054172200147264e+02,1.438302124907466464e+02,1.438948398042948611e+02,1.440874678577077361e+02,1.442881777180551808e+02,1.444019716080257467e+02,1.444160413667944454e+02,1.443703004161363310e+02,1.443667779907663657e+02,1.442588428787052521e+02,1.441367763465891016e+02,1.439829469596649574e+02,1.439112937955373468e+02,1.438619433988361038e+02,1.437937794254302162e+02,1.437067889675712991e+02,1.436785723377720387e+02,1.437032656222990568e+02,1.438090590480730384e+02,1.439007201774198847e+02,1.439712073285821248e+02,1.440064427207134941e+02,1.439794304969684049e+02,1.439300915912282903e+02,1.438290433165951754e+02,1.437114962642671685e+02,1.435774421784761898e+02,1.434527406442020947e+02,1.433962574540791479e+02,1.434021404068826655e+02,1.434939185451001435e+02,1.435939029480397267e+02
1.322117346919972078e+02,1.324531945478447028e+02,1.326836902630211057e+02,1.329478601076393716e+02,1.332155177491260929e+02,1.334649745576381292e+02,1.336637373384602370e+02,1.338263088735903352e+02,1.339671657127769322e+02,1.341296459052626346e+02,1.343329768183082820e+02,1.345650865769608799e+02,1.348043082432016035e+02,1.350145823540912033e+02,1.351959579979632622e+02,1.354216776858197591e+02,1.356665018205681577e+02,1.359639619946564153e+02,1.362636460379245023e+02,1.366038591067790549e+02,1.369450290211045171e+02,1.372608341759418522e+02,1.375369924844486604e+02,1.377532601477414005e+02,1.378918127488054211e+02,1.380040502162360667e+02,1.381210349417517023e+02,1.382499222106566776e+02,1.383334426819126861e+02,1.383608788551298971e+02,1.383668420641304806e+02,1.383966641738871886e+02,1.384813505093921435e+02,1.385588663526594928e+02,1.386113327270332434e+02,1.386518671001866778e+02,1.386971631551826931e+02,1.387686754600952099e+02,1.388437505591980994e+02,1.389521775629091849e+02,1.390974924866310403e+02,1.392558579810432207e+02,1.394415228421577808e+02,1.396021311387984269e+02,1.397769433402550590e+02,1.399421741076086505e+02,1.401073330901096483e+02,1.402237338019422737e+02,1.403175448527958906e+02,1.404148943587712779e+02,1.405454427657376186e+02,1.406925554703218495e+02,1.408384245707039781e+02,1.409783160675310114e+02,1.411027479285459094e+02,1.412271452683584130e+02,1.413526785176931071e+02,1.414852737553786710e+02,1.416320106433876731e+02,1.417798746360354016e+02,1.419241267043275911e+02,1.420600535978210246e+02,1.422018317511277701e+02,1.424025826452115666e+02,1.426315232901589525e+02,1.428956719233691501e+02,1.431501833301205124e+02,1.433950758217981729e+02,1.435868499804975613e+02,1.437032692102482088e+02,1.437397133733775831e+02,1.436750486604186108e+02,1.435115650300778611e+02,1.433738882783252961e+02,1.433374037929516476e+02,1.434445029626356813e+02,1.435786195157627390e+02,1.438149375472561360e+02,1.440099624405736449e+02,1.441849050185654733e+02,1.442694033425787552e+02,1.443785120766235082e+02,1.444641258489944562e+02,1.445004735391997883e+02,1.444488811520739659e+02,1.443468382213216046e+02,1.441567345200619457e+02,1.439524085946447371e+02,1.438396159255063367e+02,1.438772194930686510e+02,1.440804230968153661e+02,1.443210289670381599e+02,1.445016435417027196e+02,1.445696346598659829e+02,1.445579158480696833e+02,1.445790100625674768e+02,1.444735012777600787e+02,1.443491830974317622e+02,1.441872548224197317e+02,1.441168275297640093e+02,1.440592913637625543e+02,1.439853019980612316e+02,1.439089417452901216e+02,1.438748671696824886e+02,1.438901425923036754e+02,1.439817748101572192e+02,1.440757324660954737e+02,1.441461770312457702e+02,1.441849121826310807e+02,1.441684773422780950e+02,1.441262145383057032e+02,1.440287574511426669e+02,1.439159906686242607e+02,1.437914336107626241e+02,1.436938614598381037e+02,1.436562382691320181e+02,1.436844570018893137e+02,1.437667476289942101e+02,1.438689934507661974e+02
1.321549739194954896e+02,1.323336839578180388e+02,1.325171631936043468e+02,1.327247142503011901e+02,1.329454494871325210e+02,1.331648910802149430e+02,1.333420678549016998e+02,1.334963008363413337e+02,1.336227900376155162e+02,1.337793545623511022e+02,1.339659644758284571e+02,1.341681532117480629e+02,1.343762817116914334e+02,1.345506583937180949e+02,1.347141631227415814e+02,1.349004443536910003e+02,1.351214998707263817e+02,1.353940740540940624e+02,1.356976969060121405e+02,1.360287094485938155e+02,1.363690867904993524e+02,1.366900687605620419e+02,1.369845117209805494e+02,1.372249587955016068e+02,1.373911665702414666e+02,1.375250402644767291e+02,1.376481255267293022e+02,1.377795363542576297e+02,1.378667275726517687e+02,1.378965796125104362e+02,1.379001620158417154e+02,1.379204641919586152e+02,1.379813615712682804e+02,1.380780617757004620e+02,1.381902597386060734e+02,1.383417982265867749e+02,1.384825479247450062e+02,1.386149056966607418e+02,1.387150387081561576e+02,1.388080057899470034e+02,1.389331157542480923e+02,1.390653382712919779e+02,1.392391859682131781e+02,1.393939241111065144e+02,1.395581195983938869e+02,1.397056034622476659e+02,1.398601585049587470e+02,1.399873297502329592e+02,1.401108968119172573e+02,1.402308627360384889e+02,1.403899669423894352e+02,1.405596814768872491e+02,1.407399987546376678e+02,1.409095616736610168e+02,1.410660114772704219e+02,1.412188493214260916e+02,1.413787237709743749e+02,1.415349848817050997e+02,1.417006292194035382e+02,1.418330919870925868e+02,1.419430414873270934e+02,1.420364170248198548e+02,1.421510324232894504e+02,1.423175701318533584e+02,1.425135306086544915e+02,1.427317846045663714e+02,1.429522487483815780e+02,1.431584288197512365e+02,1.433256317163147173e+02,1.434397951036184509e+02,1.434833337546843950e+02,1.434339128715794232e+02,1.433138627851421347e+02,1.432455755112779912e+02,1.433115060712792115e+02,1.435021548953080242e+02,1.437044424672932337e+02,1.439559325533973606e+02,1.441555594947921577e+02,1.443573953787752657e+02,1.444746785514652743e+02,1.445965974626586785e+02,1.446680799355986551e+02,1.446821396041808612e+02,1.446223809613222784e+02,1.445039906876826308e+02,1.443186838553223197e+02,1.441226926547230960e+02,1.439993959841917786e+02,1.440111416447000465e+02,1.441719950796237413e+02,1.443937570595248872e+02,1.445837030084448429e+02,1.446879963912006133e+02,1.447161164902132668e+02,1.447465679682261452e+02,1.446446395677749024e+02,1.445145382853859246e+02,1.443632626804964048e+02,1.442987442442274073e+02,1.442377243483609845e+02,1.441626095738785693e+02,1.440980382586434985e+02,1.440616386142532406e+02,1.440675084486488231e+02,1.441320830538271593e+02,1.442177754344081109e+02,1.442787996387312432e+02,1.443210397079627683e+02,1.443257262921671895e+02,1.442975626462969672e+02,1.442095519189068682e+02,1.441050754218447878e+02,1.440158369083906109e+02,1.439488810083491899e+02,1.439312639485372642e+02,1.439618081132059615e+02,1.440428493244082802e+02,1.441297399613185917e+02
1.321730913923577191e+02,1.323131582348812572e+02,1.324447407349149444e+02,1.325968128334051812e+02,1.327705543488619924e+02,1.329454458067879727e+02,1.330937550593541800e+02,1.332335939038721904e+02,1.333601472273500690e+02,1.335228091180631509e+02,1.336890356455222673e+02,1.338648415850489073e+02,1.340381882109072080e+02,1.341958293118846655e+02,1.343558319059108044e+02,1.345254044506199875e+02,1.347321926602032249e+02,1.349725365679090032e+02,1.352463920473086887e+02,1.355477010886193625e+02,1.358656225976260998e+02,1.361713579851447662e+02,1.364469560013013734e+02,1.366852821785521996e+02,1.368708275292414669e+02,1.370275839680144259e+02,1.371579779439554159e+02,1.372823544264787756e+02,1.373696404268442279e+02,1.374210424648511548e+02,1.374425625629819478e+02,1.374915745810039311e+02,1.375740398326368563e+02,1.377401178276679730e+02,1.379395702130254335e+02,1.381771338626409715e+02,1.383716220382412985e+02,1.385183269247397675e+02,1.386244419610214891e+02,1.387055080823625985e+02,1.388211163099697387e+02,1.389426522189407933e+02,1.391022570769090976e+02,1.392427573008907871e+02,1.393879679829092879e+02,1.395259973384365253e+02,1.396830014184991455e+02,1.398316299398483693e+02,1.399944593129523014e+02,1.401572222756772135e+02,1.403579114375610288e+02,1.405584937306823008e+02,1.407660905813985437e+02,1.409463099084923670e+02,1.411098568561448019e+02,1.412591235770587446e+02,1.414225318093263013e+02,1.415858699894244523e+02,1.417609546646286276e+02,1.418933947608439894e+02,1.419926919621346997e+02,1.420671435330992267e+02,1.421616680638048820e+02,1.422892302741559547e+02,1.424403582882293904e+02,1.426150123204268994e+02,1.427860330622391984e+02,1.429534284502029777e+02,1.430924660577893519e+02,1.432031821693494749e+02,1.432655932891142356e+02,1.432856061886398606e+02,1.432914912453275633e+02,1.433385784614326894e+02,1.434692081611514141e+02,1.436691673999840759e+02,1.438642922395793562e+02,1.441027321086434085e+02,1.442541515998964314e+02,1.444781960292960434e+02,1.446118375263359326e+02,1.447817197777620777e+02,1.448391022636533307e+02,1.448367580306057789e+02,1.447664893250484397e+02,1.446528466096803527e+02,1.445075042132824592e+02,1.443620885140524024e+02,1.442600174767784438e+02,1.442482856012713341e+02,1.443573989586186030e+02,1.445274360014618651e+02,1.446950257976946546e+02,1.447969350635764840e+02,1.448449520351177284e+02,1.448812484541298886e+02,1.447887395760574236e+02,1.446645649039959949e+02,1.445274360014618651e+02,1.444723347341197268e+02,1.444054900092892240e+02,1.443280749252329542e+02,1.442729305712402947e+02,1.442482891825042088e+02,1.442482891825042088e+02,1.442834905078050838e+02,1.443409813151700973e+02,1.443808638459262284e+02,1.444113562985498902e+02,1.444265959023948653e+02,1.444183820817513606e+02,1.443620849342690917e+02,1.442823088458537200e+02,1.442271591199880731e+02,1.442036849970441494e+02,1.442142510997943532e+02,1.442541551810550118e+02,1.443233776394340566e+02,1.443925901802467138e+02
1.322491667623387457e+02,1.323638651245437359e+02,1.324592281729966317e+02,1.325762965783016512e+02,1.326993756070916106e+02,1.328381056452135454e+02,1.329647415210195049e+02,1.330949655699069467e+02,1.332191337629507757e+02,1.333685835746047132e+02,1.335131728993414981e+02,1.336637483651467164e+02,1.338178906155669097e+02,1.339780024386797095e+02,1.341260322601685289e+02,1.342619934928277985e+02,1.344412232339868183e+02,1.346660764219536759e+02,1.349364898833829898e+02,1.352127650143719961e+02,1.354828875375392272e+02,1.357492743717798476e+02,1.359783465789685692e+02,1.361977298679380510e+02,1.363678875236660133e+02,1.365296045125227806e+02,1.366709111830298866e+02,1.368025980667167687e+02,1.369151043980201621e+02,1.370024553180015232e+02,1.370993659277876873e+02,1.372213711053793190e+02,1.373744273440634629e+02,1.376098880733079000e+02,1.378882229901416849e+02,1.381807103745823042e+02,1.383895146244096281e+02,1.385326362459633742e+02,1.386363683628978265e+02,1.387138528478870398e+02,1.388008557505318095e+02,1.388902262890560451e+02,1.390224585389846652e+02,1.391463169866119642e+02,1.392879903257597221e+02,1.394272405300497439e+02,1.395949873899875229e+02,1.397745631277806524e+02,1.399766351674559246e+02,1.401881089420362514e+02,1.404267688249033199e+02,1.406629035865582864e+02,1.408811135102354228e+02,1.410600915024553501e+02,1.412010856057250408e+02,1.413420221187250831e+02,1.414817193439460539e+02,1.416414778037969313e+02,1.417988008109729208e+02,1.419324063322036977e+02,1.420376035803628270e+02,1.421214960606970408e+02,1.422195525984971596e+02,1.423069465668726252e+02,1.424061276698906227e+02,1.425147190986453438e+02,1.426338850185010756e+02,1.427659851449852795e+02,1.428791671266895378e+02,1.429828908132738547e+02,1.430736201083315109e+02,1.431914122108575498e+02,1.433397603099328990e+02,1.435009808520060233e+02,1.436785759260171176e+02,1.438419685305128723e+02,1.440017473049227874e+02,1.441978215359179671e+02,1.443878975580741439e+02,1.446270660062350544e+02,1.447852297000383714e+02,1.449210551340529491e+02,1.449690459019615218e+02,1.449514866258582515e+02,1.448871044371072685e+02,1.447875672397225344e+02,1.446891691635325401e+02,1.446059719375967916e+02,1.445356465755921249e+02,1.445227528231761767e+02,1.445860494510872627e+02,1.447044004376152202e+02,1.448238715253309579e+02,1.449140245599613195e+02,1.449655277121070753e+02,1.449959575883250409e+02,1.449058327031548856e+02,1.447969386376546481e+02,1.446868236137623853e+02,1.446376124256555045e+02,1.445649486263347967e+02,1.444840607781304129e+02,1.444195667480085490e+02,1.443902492481766444e+02,1.443796933330905858e+02,1.443808638459262284e+02,1.444031491857341507e+02,1.444183963979900795e+02,1.444477145045042903e+02,1.444641258489944562e+02,1.444676398828750052e+02,1.444512215897284477e+02,1.444195595899194586e+02,1.444125230990993600e+02,1.444195595899194586e+02,1.444535691647936915e+02,1.444981299412409612e+02,1.445649486263347967e+02,1.446282390429826137e+02
1.322938440043365631e+02,1.324037038900365815e+02,1.324869864462416444e+02,1.325931854396525864e+02,1.327174684422080873e+02,1.328598160508011006e+02,1.329997135371016839e+02,1.331407790673479781e+02,1.332806060643180217e+02,1.334312453347894234e+02,1.335770239335049610e+02,1.337227599921096157e+02,1.338816985531599357e+02,1.340490124859786079e+02,1.342018402374073389e+02,1.343365817176738233e+02,1.344989492602057908e+02,1.346913199235788738e+02,1.349076536603958516e+02,1.351130839377977964e+02,1.353304389400972241e+02,1.355585013163391750e+02,1.357708695723647452e+02,1.359639619946564153e+02,1.361246129869198853e+02,1.362912014269834913e+02,1.364505458943541498e+02,1.366050468239080260e+02,1.367535174972784375e+02,1.368947615848136934e+02,1.370563039105258554e+02,1.372357253496651310e+02,1.374616959643494738e+02,1.377329504546837597e+02,1.380338931232834057e+02,1.383024220165424936e+02,1.385064009178988158e+02,1.386530604071491553e+02,1.387758333103305972e+02,1.388687799375700820e+02,1.389438374451263485e+02,1.390022111934472946e+02,1.390808214480957190e+02,1.391784686467537995e+02,1.392975151191625969e+02,1.394427102890378478e+02,1.396009368927304308e+02,1.397900161172479443e+02,1.399885156018939938e+02,1.402177971532317997e+02,1.404611875087463204e+02,1.407198378005355153e+02,1.409534254382426752e+02,1.411465889620895382e+02,1.412792590467906848e+02,1.413964896969571896e+02,1.414982918493188890e+02,1.416178166535038372e+02,1.417467622163475767e+02,1.418815710101691252e+02,1.420257847285205344e+02,1.421439442165628861e+02,1.422632523927414354e+02,1.423293825101102925e+02,1.423836968326756960e+02,1.424415398341932928e+02,1.425123529189324358e+02,1.426067493247878701e+02,1.426680921777166304e+02,1.427223512040507671e+02,1.428131539014428881e+02,1.430041083633696530e+02,1.432703038018229336e+02,1.435162753737312755e+02,1.437091462130658215e+02,1.438548967641665968e+02,1.439970518131623862e+02,1.442048669873852305e+02,1.444031491857341507e+02,1.446645684798397156e+02,1.448309045044143772e+02,1.449667064002929919e+02,1.449889433175807198e+02,1.449655348556878494e+02,1.449187116303050402e+02,1.448601708401787960e+02,1.448074783851638472e+02,1.447700030222728742e+02,1.447372055260479442e+02,1.447360365383405565e+02,1.447875708139265498e+02,1.448847606303933730e+02,1.449784001268999418e+02,1.450474445254545230e+02,1.450802068421128865e+02,1.451117941016218538e+02,1.450380892201624761e+02,1.449631917506814602e+02,1.448648552970007586e+02,1.448191899165041150e+02,1.447348603957127580e+02,1.446505043202752745e+02,1.445790172165098397e+02,1.445356501531307458e+02,1.445063449694729343e+02,1.444746857081289590e+02,1.444617855205721639e+02,1.444594380152695408e+02,1.444957863233245803e+02,1.445297829270478474e+02,1.445520562537408296e+02,1.445532260362650732e+02,1.445379898533822143e+02,1.445391596960158722e+02,1.445590891827594646e+02,1.446188617598857604e+02,1.446938602017837070e+02,1.447770267035360803e+02,1.448508052505393380e+02
1.322853878364441016e+02,1.323976659941143339e+02,1.324906071510350785e+02,1.326293883674566700e+02,1.327934711601133131e+02,1.329768014646268739e+02,1.331564553057891089e+02,1.333227889128020252e+02,1.334758213002021421e+02,1.336324280003619833e+02,1.338010316591440869e+02,1.339731902246198274e+02,1.341525097236402075e+02,1.343317690614121034e+02,1.344833155226702956e+02,1.346119754349550703e+02,1.347454127023606247e+02,1.349076536603958516e+02,1.350854636069245771e+02,1.352307844833161425e+02,1.353808670073825624e+02,1.355597025481062019e+02,1.357564716555212954e+02,1.359459687825856236e+02,1.361066292972545284e+02,1.362768223526241513e+02,1.364589319561280263e+02,1.366433664821965408e+02,1.368444888096998966e+02,1.370335683468938441e+02,1.372417034169694148e+02,1.374413769590499896e+02,1.376779992686018659e+02,1.379359917677796261e+02,1.382153194666798299e+02,1.384682333187129188e+02,1.386840524899116076e+02,1.388556745154335204e+02,1.390022148286051902e+02,1.390998766056658269e+02,1.391677492779259069e+02,1.392010874323722192e+02,1.392379979392838436e+02,1.393010895849511144e+02,1.393903540762595981e+02,1.395200467478558721e+02,1.396627862597600824e+02,1.398435146690108013e+02,1.400372376387306304e+02,1.402700532539088840e+02,1.405205309978186392e+02,1.408076043384656941e+02,1.410612812911567744e+02,1.412733388781455801e+02,1.413893827082044368e+02,1.414769872987735084e+02,1.415503631294449747e+02,1.416367442550047144e+02,1.417479425357739160e+02,1.418661998981760348e+02,1.420281470885211093e+02,1.421675734056937017e+02,1.422975011160104373e+02,1.423506387057348661e+02,1.423789734123602102e+02,1.424084837936419490e+02,1.424639632007665000e+02,1.425229735847350980e+02,1.425123529189324358e+02,1.424734075807473914e+02,1.425276949722555173e+02,1.427577367475378196e+02,1.430948280139823510e+02,1.433762517007917836e+02,1.435692114579235863e+02,1.437067997312915963e+02,1.438596017114687129e+02,1.440945196124033600e+02,1.443327685521850299e+02,1.446141801498728228e+02,1.447805474105282428e+02,1.448906201080321239e+02,1.448953004506664115e+02,1.448871044371072685e+02,1.448859289634834795e+02,1.448718800397361406e+02,1.448496331884761616e+02,1.448355859062966147e+02,1.448402707988960287e+02,1.448753994869540520e+02,1.449374412123185039e+02,1.450240413431986326e+02,1.450954083392613825e+02,1.451503875270826143e+02,1.451714415400687130e+02,1.452088626218766194e+02,1.451620871919917022e+02,1.451270008643786014e+02,1.450568102032081015e+02,1.450076642841518151e+02,1.449175398705739894e+02,1.448203585395772279e+02,1.447477440594167888e+02,1.446903455062594617e+02,1.446387925691323062e+02,1.445801940374766446e+02,1.445438533263152294e+02,1.445356429980535040e+02,1.445801868835651476e+02,1.446364394294690783e+02,1.446645649039959949e+02,1.446551888787990947e+02,1.446270695825743360e+02,1.446247234938913948e+02,1.446551924547669614e+02,1.447301736484316734e+02,1.448355859062966147e+02,1.449538262640456878e+02,1.450638226343176029e+02
1.322612419358061970e+02,1.323940446995152342e+02,1.325268129326551048e+02,1.327174684422080304e+02,1.329237387137985706e+02,1.331504254696428120e+02,1.333685835746047132e+02,1.335685834365141886e+02,1.337576765990910985e+02,1.339442939949418587e+02,1.341561195175418675e+02,1.343678574123707108e+02,1.345735003880093927e+02,1.347526204920521309e+02,1.349148628667452954e+02,1.350590332078642177e+02,1.352043615752166374e+02,1.353424455533227047e+02,1.354792942733943732e+02,1.355741061191860126e+02,1.356461031387583489e+02,1.357780665446083503e+02,1.359639583353347234e+02,1.361941271355760250e+02,1.363798654337647918e+02,1.365511580555512410e+02,1.367187982066977270e+02,1.369151043980201621e+02,1.371424276388681278e+02,1.373648644059308594e+02,1.375585071539394448e+02,1.377281782193635422e+02,1.379336049070847139e+02,1.381723554228503872e+02,1.384300660216213714e+02,1.386625921919938378e+02,1.388783142066017149e+02,1.390701032249629634e+02,1.392451405944192970e+02,1.393498866888130578e+02,1.394201010045964608e+02,1.394427102890378478e+02,1.394569920659549780e+02,1.394950671239868711e+02,1.395581195983938869e+02,1.396687347742449674e+02,1.397935899224747800e+02,1.399504904402216994e+02,1.401310930465199931e+02,1.403484152850630267e+02,1.405976548307397707e+02,1.409012658716761166e+02,1.411892354220954644e+02,1.414237131982049505e+02,1.415361586791061654e+02,1.415917814387858016e+02,1.416379249401044831e+02,1.416947123546381704e+02,1.417928819791061983e+02,1.419004844898690862e+02,1.420624157236648557e+02,1.422065540359578222e+02,1.423388270707457082e+02,1.423978594901836345e+02,1.424179297384164329e+02,1.424391731358033439e+02,1.424804888895577051e+02,1.424993692439444999e+02,1.424238306170229862e+02,1.422963154608793275e+02,1.422892302741559547e+02,1.424993728455888231e+02,1.428555956048662665e+02,1.431501905189587660e+02,1.433326978898305697e+02,1.434727485974448200e+02,1.436386002145242173e+02,1.439195186519821732e+02,1.441133019479299833e+02,1.443902456687546874e+02,1.445356501531307458e+02,1.446938637772390166e+02,1.447243213554303338e+02,1.447442336442569513e+02,1.447922494058014991e+02,1.447992796485335134e+02,1.448051338725277901e+02,1.448098228771068534e+02,1.448484646945991585e+02,1.449116881384283602e+02,1.449877683015733965e+02,1.450872222056730152e+02,1.451585716383945623e+02,1.452147076052930856e+02,1.452462781674248617e+02,1.453094038313857368e+02,1.452965445385962653e+02,1.452848546714672580e+02,1.452252339437971500e+02,1.451807991125989474e+02,1.450883967694467742e+02,1.449854253966610713e+02,1.449175362981278568e+02,1.448590023929133395e+02,1.448180212882824662e+02,1.447477476341541660e+02,1.447008858797747166e+02,1.446657342023952992e+02,1.446950257976946546e+02,1.447535958405210863e+02,1.447781955119278905e+02,1.447512580031992115e+02,1.446973748514153044e+02,1.446821431797917512e+02,1.447126056608124713e+02,1.447969422117327554e+02,1.449315899247362722e+02,1.450942445176135038e+02,1.452380897541680156e+02
1.322902183685281443e+02,1.324664662288299155e+02,1.326607579489642035e+02,1.329092631707956116e+02,1.331528352045673955e+02,1.334011178330887901e+02,1.336360375978062507e+02,1.338564092295617911e+02,1.340778957396868805e+02,1.342980865878457735e+02,1.345542618072119012e+02,1.348127182042437084e+02,1.350578307940291438e+02,1.352595989205316869e+02,1.354264802344681584e+02,1.355813059190654712e+02,1.357456793519289135e+02,1.359040040362207264e+02,1.360382991798184094e+02,1.361126288112757265e+02,1.361066329555171706e+02,1.361797488603443185e+02,1.363211540305440508e+02,1.365751081469969108e+02,1.367762628696758043e+02,1.369450217173028364e+02,1.370921849402456019e+02,1.372656149180097600e+02,1.374796211786691060e+02,1.377042834772438482e+02,1.378870312568255372e+02,1.380518030113492500e+02,1.382212846455971089e+02,1.384324538503230428e+02,1.386590159782902560e+02,1.388890336413347200e+02,1.391093984099015870e+02,1.393046531224261457e+02,1.394807866663829259e+02,1.395854767177813756e+02,1.396615994499528028e+02,1.396901399967655379e+02,1.397186821696413972e+02,1.397674332916870981e+02,1.398363860502668672e+02,1.399350399855507021e+02,1.400419913082295125e+02,1.401809792338359557e+02,1.403543535776748286e+02,1.405573132231994578e+02,1.407969322883896552e+02,1.410873508113817820e+02,1.413716200480402563e+02,1.416024268569437368e+02,1.417136322570979132e+02,1.417585832804446113e+02,1.417928819791061983e+02,1.418425501623771652e+02,1.419454080177303013e+02,1.420553256912961615e+02,1.422136409453850661e+02,1.423624391178362885e+02,1.424922919375978836e+02,1.425512973025997780e+02,1.425925919385443308e+02,1.426327005562499153e+02,1.427164520411776039e+02,1.427317846045663714e+02,1.426669114384056343e+02,1.424804852877094277e+02,1.423907728317749957e+02,1.424911105710671109e+02,1.427765976319206516e+02,1.430347418587566040e+02,1.432149624669964965e+02,1.433491790141888487e+02,1.435021548953080242e+02,1.438055333271914265e+02,1.439430087731688559e+02,1.441849086005983054e+02,1.442506348802885441e+02,1.444371607728817821e+02,1.445039978435848980e+02,1.445684721017955781e+02,1.446387854167630849e+02,1.446399584027912510e+02,1.446340969981089302e+02,1.446551924547669614e+02,1.447407196082156702e+02,1.448566619095967098e+02,1.449596806255627257e+02,1.450720130834770316e+02,1.451550631745653277e+02,1.452404267794358930e+02,1.453093966974262798e+02,1.454098974354333222e+02,1.454227508527110899e+02,1.454122364151184570e+02,1.453549820960203078e+02,1.453070603147273232e+02,1.452357527072234689e+02,1.451375237000853531e+02,1.450790358111193541e+02,1.450205346113118026e+02,1.449971325672957505e+02,1.449561694531814169e+02,1.449222233056861455e+02,1.448800765273122124e+02,1.448566583363239033e+02,1.448683641186439672e+02,1.448449448882553270e+02,1.447863948982256375e+02,1.447079149495106662e+02,1.446844851947291772e+02,1.447231487364649638e+02,1.448238786727621346e+02,1.449690423302192244e+02,1.451644213499822627e+02,1.453351097291493375e+02
1.323892150430409629e+02,1.325943970285715636e+02,1.328272464469130796e+02,1.330997891891669269e+02,1.333661711013890567e+02,1.336348319508076088e+02,1.338949324476547531e+02,1.341537105428334939e+02,1.344304032595600802e+02,1.346985321287239117e+02,1.350025643843960097e+02,1.353064248634053115e+02,1.355957052096418352e+02,1.358272491737752716e+02,1.360059289730814953e+02,1.361773530497021056e+02,1.363618948014045600e+02,1.365391843902169740e+02,1.366673156261666122e+02,1.367140155661965082e+02,1.366457672972089199e+02,1.366517564925586044e+02,1.367607036325498484e+02,1.370239947646482506e+02,1.372488748066405719e+02,1.374114841401682838e+02,1.375262329473495697e+02,1.376540982440171206e+02,1.378153720460659883e+02,1.380076317617012478e+02,1.381771302205570464e+02,1.383417945858611802e+02,1.385075873463926541e+02,1.386971595174286449e+02,1.388985638215345944e+02,1.390998729713482476e+02,1.393070360621654231e+02,1.394962507857539435e+02,1.396758699735111691e+02,1.397864531652521123e+02,1.398708561957038228e+02,1.399148338086458807e+02,1.399599997897451544e+02,1.400265480204773780e+02,1.401144641269704039e+02,1.402201747229334501e+02,1.403258569204741661e+02,1.404516866345904305e+02,1.406023980678259022e+02,1.407755800478437322e+02,1.409664660048829887e+02,1.412188493214260916e+02,1.414710631242289764e+02,1.416982574312751808e+02,1.418200789117440763e+02,1.418839307408669583e+02,1.419229469766506213e+02,1.419808715789586699e+02,1.420801437734742194e+02,1.422041929017085522e+02,1.423766062728960833e+02,1.425477538189815618e+02,1.426975840841241165e+02,1.427695226790499987e+02,1.428379086396823823e+02,1.428897795057478675e+02,1.429781760104402224e+02,1.430076360939066831e+02,1.429805280260339941e+02,1.428390851622891660e+02,1.427258856118633048e+02,1.427317882036751939e+02,1.428768179664376134e+02,1.430359212559627622e+02,1.431867005098314962e+02,1.433091565247073049e+02,1.434609745134218883e+02,1.437420595963569667e+02,1.438384360296507225e+02,1.440275783187215097e+02,1.440522423303393680e+02,1.442518059312892547e+02,1.443515386936431355e+02,1.444441966386574450e+02,1.445039942656337644e+02,1.444629556872613421e+02,1.444090083660308323e+02,1.444418454053307528e+02,1.445790172165098397e+02,1.447547754754455696e+02,1.448941285864359543e+02,1.450275551694459750e+02,1.451281645371381614e+02,1.452474412929794880e+02,1.453561447157778161e+02,1.454998393933109924e+02,1.455302082629246456e+02,1.455173604954141524e+02,1.454589649933612918e+02,1.454180730708985720e+02,1.453573144626743670e+02,1.452649802887382293e+02,1.452006765633455529e+02,1.451538996245119506e+02,1.451585752075091591e+02,1.451597423052907629e+02,1.451492168171797630e+02,1.451036013514016645e+02,1.450404245075000063e+02,1.449830824706386352e+02,1.449046573132800404e+02,1.448109915414275406e+02,1.447278320315588189e+02,1.447032313069930751e+02,1.447547754754455696e+02,1.448695432437474437e+02,1.450228736281821398e+02,1.452205524535255563e+02,1.453970469133278129e+02
1.324857746284087625e+02,1.327162607984882925e+02,1.329792082699802904e+02,1.332733748159650418e+02,1.335758108038896808e+02,1.338792846734698969e+02,1.341741607769513394e+02,1.344845192635416993e+02,1.348151205013286926e+02,1.351503167974721009e+02,1.354948905393999894e+02,1.358380397109457363e+02,1.361593749516490561e+02,1.364265932727805648e+02,1.366206184371712311e+02,1.368121761329582000e+02,1.370048543185417884e+02,1.371950629670817534e+02,1.373146457037914274e+02,1.373541044959107467e+02,1.372608378253820547e+02,1.371795138967535763e+02,1.372345246174853060e+02,1.374712495995705694e+02,1.377210033662870501e+02,1.378834487489966705e+02,1.379765883199301584e+02,1.380685136441573491e+02,1.381723554228503872e+02,1.383119687499852830e+02,1.384694271304013569e+02,1.386375580743932687e+02,1.388068129127236716e+02,1.389807668542641750e+02,1.391689375062077261e+02,1.393570274248248779e+02,1.395509750817441272e+02,1.397174882651553389e+02,1.398768016525974076e+02,1.399861438950497359e+02,1.400811969427294912e+02,1.401429688647610874e+02,1.402059235871135456e+02,1.402843020630698447e+02,1.403840364381822496e+02,1.404979790101957633e+02,1.406071448669972597e+02,1.407269503596451727e+02,1.408514691270580101e+02,1.409854273717504611e+02,1.411288181504340287e+02,1.413242571476736202e+02,1.415290616609533458e+02,1.417349299281852382e+02,1.418661962898546562e+02,1.419548631563432650e+02,1.420056913938894354e+02,1.420730577115242568e+02,1.421699420032171020e+02,1.423081285810916370e+02,1.425017319142841075e+02,1.427117369535011449e+02,1.428933192860298504e+02,1.429923202103556150e+02,1.430971791674858196e+02,1.431796310286787843e+02,1.432856061886398606e+02,1.433574156551163696e+02,1.433797716581369173e+02,1.433009078228870408e+02,1.431843356477283464e+02,1.431419412191665970e+02,1.431796310286787843e+02,1.432502863262874371e+02,1.433421132167660517e+02,1.434350907634603800e+02,1.435574446928230259e+02,1.437773260495552563e+02,1.438407886440667767e+02,1.439747274753164561e+02,1.439723795206643899e+02,1.441567381024486849e+02,1.442611956510364735e+02,1.443808638459262284e+02,1.444031491857341507e+02,1.443222104662801826e+02,1.442166006610667068e+02,1.442506312990853417e+02,1.444301175706214053e+02,1.446540195347674853e+02,1.448437799471055882e+02,1.449912754764740157e+02,1.451164668862032840e+02,1.452649767211255494e+02,1.454098974354333222e+02,1.455722393989650527e+02,1.456154388424623676e+02,1.456060977324648320e+02,1.455512265260957747e+02,1.455068465599898673e+02,1.454484449763978091e+02,1.453619898288769718e+02,1.453000510355067831e+02,1.452696609528724139e+02,1.452895278300291579e+02,1.453316037250227168e+02,1.453503030313855220e+02,1.453210854164577199e+02,1.452275675200858132e+02,1.451152960207664933e+02,1.449901040424637131e+02,1.448683676917582943e+02,1.447653168908594807e+02,1.447278356065619960e+02,1.447793750381364362e+02,1.449093481235306626e+02,1.450708455855104262e+02,1.452626399239479156e+02,1.454367694036170064e+02
1.325497432969826264e+02,1.327777884309077194e+02,1.330467381195259691e+02,1.333565358134283088e+02,1.336890356455222673e+02,1.340249431443984918e+02,1.343690577455586208e+02,1.347442095603313419e+02,1.351335004004731672e+02,1.355308978325167573e+02,1.359135888676860304e+02,1.362923972261083350e+02,1.366242106901848388e+02,1.369007476488544057e+02,1.371113254777299630e+02,1.373050742328172191e+02,1.375023276354788209e+02,1.376851638622144378e+02,1.378105933888630261e+02,1.378464266186500708e+02,1.377484844804727118e+02,1.375955527611493494e+02,1.375955527611493494e+02,1.377914819002485842e+02,1.380732895569546486e+02,1.382546961715427187e+02,1.383537250817922768e+02,1.384336477597847761e+02,1.385111684483798626e+02,1.386101356664609625e+02,1.387388825364321860e+02,1.388854629504667741e+02,1.390605768984802921e+02,1.392439453162854761e+02,1.394403281291587291e+02,1.396175906840477978e+02,1.397923962387616825e+02,1.399421704807359674e+02,1.400871356442758042e+02,1.401928571764231037e+02,1.402937961497714809e+02,1.403685956912806887e+02,1.404374475647482541e+02,1.405050993078912711e+02,1.405964708227204483e+02,1.406984884664528863e+02,1.408206427215357621e+02,1.409415673527832382e+02,1.410600915024553501e+02,1.411679091928083949e+02,1.412828045964655530e+02,1.414414660825941610e+02,1.416024304679544343e+02,1.417668668134233485e+02,1.418827544856572445e+02,1.419725967106970188e+02,1.420399658596743961e+02,1.421214996663651391e+02,1.422242782426029635e+02,1.423730681430006939e+02,1.425772528858478836e+02,1.428048959050285589e+02,1.430076360939066831e+02,1.431419412191665970e+02,1.432808959073877304e+02,1.433880182580169844e+02,1.435009808520060233e+02,1.436150788077249558e+02,1.436538806074123045e+02,1.436538806074123045e+02,1.435833180509675344e+02,1.435645019350161533e+02,1.435797932590477330e+02,1.436021401750336963e+02,1.436703479673083166e+02,1.437220838229119408e+02,1.437996618147948880e+02,1.438948433899241763e+02,1.438995405266552439e+02,1.439770754110250550e+02,1.440087904001094898e+02,1.441614309904603601e+02,1.442647122391958874e+02,1.443808602663837632e+02,1.443890716158887244e+02,1.442905302456691743e+02,1.441696487321398763e+02,1.441942969537520867e+02,1.443738192174212713e+02,1.446012829521694698e+02,1.448121602006045805e+02,1.449631881788589567e+02,1.450872257757837929e+02,1.452182152441156973e+02,1.453479705988581827e+02,1.455150260846318133e+02,1.455839227192494150e+02,1.456201092609501870e+02,1.456025991758241389e+02,1.455815818249074596e+02,1.455290357764326359e+02,1.454426054769353414e+02,1.453783475670379062e+02,1.453619933951028429e+02,1.453841921562076323e+02,1.454320918885604215e+02,1.454577921639690317e+02,1.454379316382027127e+02,1.453526390083662818e+02,1.452193749308774500e+02,1.450813707273868545e+02,1.449514866258582515e+02,1.448437870939994241e+02,1.448016277868312045e+02,1.448414393289782538e+02,1.449596770536921895e+02,1.451152995904863587e+02,1.452860211856277033e+02,1.454554607478245885e+02
1.325835331449652017e+02,1.328103572162273736e+02,1.330756743546129997e+02,1.333999153463863081e+02,1.337456374036943885e+02,1.341067847819292069e+02,1.344941417518034541e+02,1.349172683578215697e+02,1.353472451881535221e+02,1.357816613311130709e+02,1.361893319856681046e+02,1.365882869497891647e+02,1.369330579384929933e+02,1.372153891272410533e+02,1.374389765577474236e+02,1.376290035540015424e+02,1.378344788797615479e+02,1.380135997259574765e+02,1.381437128422629144e+02,1.381902597386060734e+02,1.381067122281788784e+02,1.379264369606445371e+02,1.378703102134510914e+02,1.380076281182310822e+02,1.382869145054448268e+02,1.385004359723045013e+02,1.386470974775573382e+02,1.387603390328436603e+02,1.388520999090119403e+02,1.389486074017530086e+02,1.390570040162856458e+02,1.391844241369877295e+02,1.393356084805751038e+02,1.395224284466822837e+02,1.397139210463380437e+02,1.398910645866189384e+02,1.400503055608234604e+02,1.401976089781413748e+02,1.403401036974994440e+02,1.404445689761647031e+02,1.405371354006268803e+02,1.406142595246142832e+02,1.406735757787523653e+02,1.407257667521589042e+02,1.407909972100696905e+02,1.408822966320104797e+02,1.409972804504388364e+02,1.411145972707313945e+02,1.412342481852145397e+02,1.413420185051086264e+02,1.414615950800644555e+02,1.416012460544739042e+02,1.417349299281852382e+02,1.418425501623771652e+02,1.419182208104963934e+02,1.419962376379140210e+02,1.420777817690039342e+02,1.421805698463086287e+02,1.422963190647006400e+02,1.424580630293124273e+02,1.426574761709945847e+02,1.428791707241653057e+02,1.430795055432876666e+02,1.432396895876310055e+02,1.434103756336056676e+02,1.435597995182451996e+02,1.437150231003150793e+02,1.438548931780500197e+02,1.439030651225962743e+02,1.439183390769125594e+02,1.438995405266552439e+02,1.439077657130850980e+02,1.439547567102463859e+02,1.439852984135424094e+02,1.440651612459363378e+02,1.440874750242128357e+02,1.441003887763221201e+02,1.440757288826967510e+02,1.439982167323242379e+02,1.440287538671607876e+02,1.440769006517087405e+02,1.442295085743280083e+02,1.443151643608206882e+02,1.444183928189304993e+02,1.444195631689640891e+02,1.443362842456742783e+02,1.442447616461562916e+02,1.442600174767784438e+02,1.443984495829400316e+02,1.445883887198293678e+02,1.447863948982256375e+02,1.449456320805868472e+02,1.450591488916165304e+02,1.451538996245119506e+02,1.452334192066683158e+02,1.453830261021619208e+02,1.454823277235699948e+02,1.455850842504567026e+02,1.456095998007024264e+02,1.456271093743678193e+02,1.455862529019642011e+02,1.455302082629246456e+02,1.454683082145933213e+02,1.454531257445781876e+02,1.454472827916182496e+02,1.454858280194894746e+02,1.455103536317108137e+02,1.454986738887459410e+02,1.454169071769851485e+02,1.452918608093658008e+02,1.451655884209446299e+02,1.450404245075000063e+02,1.449292500875276346e+02,1.448777398040066942e+02,1.449034926360563418e+02,1.450029788121746037e+02,1.451316769405608511e+02,1.452778376352857777e+02,1.454204119729212152e+02
1.326076727801995503e+02,1.328175981494363214e+02,1.330648271219910725e+02,1.333794322184322709e+02,1.337299853156474683e+02,1.341031746550160619e+02,1.345205971837411312e+02,1.349605212857474044e+02,1.354036723022152842e+02,1.358368428074093686e+02,1.362612433243403416e+02,1.366780949077884770e+02,1.370479210525149369e+02,1.373457269902172584e+02,1.375919606575060925e+02,1.377819276758521028e+02,1.379885249965517460e+02,1.381640003137279109e+02,1.383024220165424936e+02,1.383561133264607292e+02,1.383071990501493360e+02,1.381484879481351413e+02,1.380625464135073344e+02,1.381270050312918443e+02,1.383728124730478157e+02,1.386125225073626552e+02,1.388199271059878015e+02,1.389783929693937807e+02,1.391070252475403777e+02,1.392213288470286443e+02,1.393237053610494058e+02,1.394379568496527213e+02,1.395747787624584930e+02,1.397531659856152828e+02,1.399338539753098871e+02,1.401002055503466295e+02,1.402581740187592345e+02,1.404065841900455212e+02,1.405513744189708518e+02,1.406522238556939328e+02,1.407364371844523703e+02,1.408028527982261835e+02,1.408431684268562094e+02,1.408751833729085661e+02,1.409107483237802398e+02,1.409783160675310114e+02,1.410778656088511411e+02,1.411892354220954644e+02,1.413147816609002234e+02,1.414272645672641033e+02,1.415539132513516734e+02,1.416828855497727773e+02,1.417917018098909807e+02,1.418650163667587094e+02,1.419075812909069896e+02,1.419773293534555023e+02,1.420706956585203784e+02,1.421994705842182043e+02,1.423329247017203443e+02,1.425005505812083015e+02,1.426881460985730428e+02,1.429027477183710175e+02,1.431066015813947274e+02,1.432938481110370503e+02,1.434927408796459076e+02,1.436750486604186108e+02,1.438748671696824886e+02,1.440557650767490827e+02,1.441203459025702500e+02,1.441320866365227289e+02,1.441262181210747144e+02,1.441661309658537675e+02,1.442447688087112283e+02,1.443269006111587487e+02,1.444465406946241615e+02,1.444805469533566793e+02,1.444465406946241615e+02,1.443339356813913241e+02,1.441849050185654733e+02,1.441626059915655560e+02,1.442001712330910550e+02,1.443245555485220848e+02,1.443832048568537516e+02,1.444582642551410459e+02,1.444735048561071835e+02,1.444348094798331772e+02,1.443855494276014042e+02,1.444113527193995310e+02,1.445039906876826308e+02,1.446411278075856330e+02,1.447899119072297367e+02,1.449210515616546786e+02,1.450100034172181154e+02,1.450544679230154657e+02,1.450743587743846206e+02,1.451878152812632266e+02,1.453152464757444591e+02,1.454648041028580110e+02,1.455372145533608546e+02,1.455990970054338050e+02,1.456072698444133380e+02,1.455932611289274519e+02,1.455407176225957642e+02,1.455185330383192763e+02,1.454811585707723793e+02,1.454928391535972878e+02,1.454940046860828033e+02,1.454881627103298456e+02,1.454133987656646241e+02,1.453023803496014921e+02,1.451843000836798296e+02,1.450755262564068175e+02,1.449959611596977425e+02,1.449643597340106567e+02,1.449959540169522825e+02,1.450720095131549101e+02,1.451620836229264455e+02,1.452661468953576787e+02,1.453643256958267216e+02
1.326535260502573124e+02,1.328537866936848104e+02,1.330792949578579396e+02,1.333758135758948242e+02,1.337155308973122487e+02,1.340935450824832742e+02,1.345085714849290639e+02,1.349352908506870108e+02,1.353700629845783965e+02,1.358020618025595354e+02,1.362312833816044417e+02,1.366625288164687504e+02,1.370574941473993249e+02,1.373720302430844526e+02,1.376218344308906012e+02,1.378189550945618294e+02,1.380362830929126972e+02,1.382272533857476446e+02,1.383751969734194063e+02,1.384646591434660081e+02,1.384598874647106754e+02,1.383561133264607292e+02,1.382487314434931704e+02,1.382451518396944721e+02,1.384038245273447387e+02,1.386327919321806803e+02,1.388795068843022023e+02,1.390867783217486817e+02,1.392534711156995400e+02,1.393927292605513344e+02,1.395069616806477484e+02,1.396199718158338783e+02,1.397412749704674866e+02,1.398993856066993544e+02,1.400598125306586894e+02,1.402118604149450221e+02,1.403531652017643410e+02,1.404884862830880934e+02,1.406308743608202576e+02,1.407269575988233896e+02,1.408040397841652407e+02,1.408467253752362467e+02,1.408621396368166643e+02,1.408739966106010115e+02,1.408953396698977940e+02,1.409557984572608120e+02,1.410328374283444077e+02,1.411252638856584554e+02,1.412378013994605226e+02,1.413526785176931071e+02,1.414781685097543118e+02,1.416048028941322627e+02,1.417077264389726565e+02,1.417751465428678443e+02,1.418153549668751907e+02,1.418981284788170569e+02,1.420056986076453427e+02,1.421463129774303980e+02,1.422809664384985240e+02,1.424320945545177892e+02,1.426102921770001899e+02,1.428166909223488688e+02,1.430394522300023255e+02,1.432585291831755967e+02,1.434950962060092365e+02,1.437267801155263101e+02,1.439747274753164561e+02,1.441989963869320377e+02,1.442905302456691743e+02,1.443128227805276538e+02,1.443304199584381990e+02,1.444418489840876987e+02,1.445462001112956045e+02,1.446516772555204966e+02,1.447383745086528961e+02,1.447442300694726782e+02,1.446821431797917512e+02,1.445344731404063054e+02,1.443573989586186030e+02,1.443128192001146886e+02,1.443351099659935244e+02,1.444652995842245105e+02,1.444981299412409612e+02,1.445473699188559067e+02,1.445755010312128093e+02,1.445708115213010956e+02,1.445649522034902361e+02,1.445895619235012646e+02,1.446411278075856330e+02,1.447219689622111787e+02,1.448203621133402521e+02,1.449280748026271226e+02,1.450053215587423097e+02,1.450310653770769136e+02,1.450170278319297381e+02,1.450965864355520694e+02,1.452030139348806301e+02,1.453280976715178099e+02,1.453725064058787666e+02,1.454356000332051622e+02,1.454940046860828033e+02,1.455477271725083597e+02,1.455442206411450456e+02,1.455220363774611769e+02,1.454659733339221361e+02,1.454449512754800935e+02,1.454262555653974118e+02,1.454180766363148791e+02,1.453467972414931637e+02,1.452532889501113686e+02,1.451421995835248140e+02,1.450474445254545230e+02,1.449982968269281400e+02,1.449947861754270662e+02,1.450579706237732580e+02,1.451328405920179421e+02,1.452041843967903674e+02,1.452731642586905991e+02,1.453292675504031308e+02
1.327222989912661433e+02,1.329249459122966641e+02,1.331528388835440637e+02,1.334372684308244175e+02,1.337745405785389607e+02,1.341597292870525848e+02,1.345783108404381210e+02,1.349917560382679653e+02,1.354108781957903034e+02,1.358296503447643317e+02,1.362576483746083795e+02,1.366852748707568139e+02,1.370826125529749788e+02,1.374043079700856538e+02,1.376600708830305848e+02,1.378750882383949374e+02,1.380971647106238152e+02,1.383048105398233929e+02,1.384718111043367799e+02,1.385922521336754585e+02,1.386363683628978265e+02,1.385767549009494815e+02,1.384658493252351263e+02,1.384026305365258054e+02,1.384777728019913070e+02,1.386602092655039087e+02,1.388949968465732923e+02,1.391213148988592820e+02,1.393106104461886048e+02,1.394605542627908790e+02,1.395807140385673506e+02,1.397008385565975459e+02,1.398375759760569963e+02,1.399790105573066512e+02,1.401251550037041511e+02,1.402534265728281753e+02,1.403828481528005909e+02,1.404884862830880934e+02,1.406071484877217017e+02,1.406925627101537088e+02,1.407649107150520535e+02,1.407862563185084355e+02,1.407850692768321323e+02,1.407850692768321323e+02,1.408099746580164719e+02,1.408657036428235187e+02,1.409368355898190543e+02,1.410067640893229282e+02,1.410814239442645999e+02,1.411726524784307344e+02,1.412910990968532587e+02,1.414201654071740109e+02,1.415337966336616660e+02,1.416237311854418408e+02,1.416994451323340058e+02,1.417857936862624797e+02,1.418969450553309457e+02,1.420246053458157576e+02,1.421522185839576764e+02,1.422774237032963924e+02,1.424391803403900667e+02,1.426397856651795450e+02,1.428886067650903442e+02,1.431384113874610193e+02,1.434103792250214724e+02,1.436762256163200959e+02,1.439676835545467952e+02,1.442987442442274073e+02,1.444348130586810157e+02,1.444992999537092260e+02,1.444770223489019259e+02,1.446481620105889192e+02,1.447922601282247683e+02,1.449269066570882956e+02,1.449795751852315675e+02,1.449561658812628480e+02,1.448765678615773709e+02,1.447114329906653438e+02,1.445157153836275370e+02,1.444606081918992118e+02,1.444735084344543452e+02,1.445848798091855087e+02,1.446012901055268571e+02,1.446399619789604571e+02,1.446844887703089171e+02,1.447126056608124713e+02,1.447336949726963553e+02,1.447711718614494885e+02,1.448016242128160798e+02,1.448472890487579434e+02,1.448988088666087037e+02,1.449678672243570077e+02,1.450228700571801710e+02,1.450415957139946954e+02,1.450369179977695353e+02,1.451141322894447967e+02,1.451889786760264087e+02,1.452369194493996361e+02,1.452030139348806301e+02,1.452345859596460969e+02,1.453269313538662004e+02,1.454227508527110899e+02,1.454624656239631122e+02,1.454426126070561054e+02,1.453760153983449754e+02,1.453082374263004795e+02,1.452684907950215347e+02,1.452673206317151084e+02,1.452135371920850275e+02,1.451258264776012652e+02,1.450217023368795708e+02,1.449573374679570179e+02,1.449491398226765568e+02,1.449877647300880881e+02,1.450848802022958921e+02,1.451726085788005776e+02,1.452380933221620580e+02,1.452848546714672580e+02,1.453187491432093452e+02
1.328163944013633113e+02,1.330310661519488917e+02,1.332601185078816002e+02,1.335493124408010317e+02,1.338865115839648752e+02,1.342788416477819169e+02,1.347129562403160890e+02,1.351371034369229847e+02,1.355657050017069309e+02,1.359735529837940931e+02,1.363774706066474209e+02,1.367846432389254687e+02,1.371639606582506872e+02,1.374808176272003948e+02,1.377281709279037614e+02,1.379550934843500158e+02,1.381926452264818863e+02,1.384193315514118012e+02,1.386053655837209249e+02,1.387531809242889267e+02,1.388354155926182898e+02,1.388103915344262873e+02,1.387078907585836873e+02,1.386053655837209249e+02,1.386005990870204414e+02,1.387126597091053668e+02,1.389081010605154916e+02,1.391225032584838459e+02,1.393106104461886048e+02,1.394581758371243154e+02,1.395771456229387013e+02,1.396972711915785226e+02,1.398209312072551143e+02,1.399481112541186576e+02,1.400705048806161699e+02,1.401881089420362514e+02,1.402926184606813536e+02,1.403781022207452907e+02,1.404778089501776890e+02,1.405585045942312377e+02,1.406273190130164608e+02,1.406486687062207466e+02,1.406545987640151907e+02,1.406712046084920189e+02,1.407079796202751822e+02,1.407625401136040750e+02,1.408194630251053354e+02,1.408704471558981481e+02,1.409309063316218271e+02,1.410020222999927455e+02,1.411027479285459094e+02,1.412295093078408854e+02,1.413621494060982400e+02,1.414746176406228528e+02,1.415763977445922137e+02,1.416734194901575279e+02,1.417857864679690465e+02,1.418969378393217653e+02,1.420080538909054440e+02,1.421167762087445681e+02,1.422620738262938289e+02,1.424379987861017298e+02,1.426716379699601589e+02,1.429239705731769163e+02,1.432184986260825212e+02,1.435303916073357300e+02,1.438666446475493217e+02,1.442459363027390964e+02,1.444359797606023221e+02,1.445661183536857379e+02,1.446001097990088056e+02,1.447981109327013769e+02,1.449596841974333188e+02,1.450825488880930720e+02,1.451340149465476088e+02,1.450848837724392979e+02,1.450111747614188857e+02,1.448156804425705673e+02,1.446130070523670952e+02,1.445567460856067328e+02,1.445930815041967321e+02,1.447254903942348392e+02,1.447325223947295854e+02,1.447688341779755774e+02,1.448051410204636227e+02,1.448531493590705850e+02,1.448882763326357122e+02,1.449257349340043675e+02,1.449362695363951730e+02,1.449538226920949455e+02,1.449795751852315675e+02,1.450287228633353038e+02,1.450614839883320997e+02,1.450825417477414021e+02,1.450883931993522538e+02,1.451749462090663769e+02,1.452135336237437855e+02,1.452006729948229236e+02,1.451047722703129921e+02,1.450872257757837929e+02,1.451691003085921921e+02,1.452755009578754652e+02,1.453467972414931637e+02,1.453257650307535869e+02,1.452287414363895550e+02,1.450942516576396883e+02,1.450111783325821762e+02,1.450076678553634792e+02,1.450029859547267961e+02,1.449550014331778698e+02,1.448824203757317832e+02,1.448402672254015897e+02,1.448625112923869551e+02,1.449315827802270178e+02,1.450462733454926934e+02,1.451433703256557237e+02,1.452147111736177294e+02,1.452743343947443009e+02,1.453210889832703856e+02
1.329213243090023866e+02,1.331564516268363718e+02,1.333878645929978006e+02,1.336830153210418075e+02,1.340321644274906134e+02,1.344532541392686653e+02,1.349232747028965491e+02,1.353628565112586557e+02,1.357864641011461231e+02,1.361557755949808097e+02,1.365307997232345087e+02,1.368935636324608254e+02,1.372512652452981001e+02,1.375632848125682699e+02,1.378297040695642863e+02,1.380697085378928364e+02,1.383155478114192647e+02,1.385469414574016582e+02,1.387460299711499943e+02,1.389092863829606017e+02,1.390165043931897344e+02,1.390093578536306040e+02,1.389295417972102200e+02,1.388246875387628734e+02,1.387889411776964721e+02,1.388389939751394309e+02,1.389664797202198656e+02,1.391284595425287876e+02,1.392808520369131884e+02,1.394153400419255036e+02,1.395343222115799335e+02,1.396497057552664387e+02,1.397626763693566545e+02,1.398779914589167106e+02,1.399980276729185675e+02,1.401180314098933763e+02,1.402189931885666851e+02,1.403044930281234315e+02,1.403852210971315344e+02,1.404600030815639684e+02,1.405181552603497721e+02,1.405466341735066180e+02,1.405739196611306170e+02,1.406071412462727039e+02,1.406640873891998922e+02,1.407281448221828555e+02,1.408004860529572397e+02,1.408585900704410960e+02,1.409202377720513937e+02,1.409806889287359581e+02,1.410695699262307699e+02,1.411762026721236225e+02,1.412934663380694928e+02,1.413976675576078605e+02,1.414864513270517818e+02,1.415681133876890954e+02,1.416556708520755024e+02,1.417562190992462661e+02,1.418591058665289211e+02,1.419773293534555023e+02,1.421049636749314118e+02,1.422597130769250384e+02,1.424533478601888419e+02,1.426798957377220063e+02,1.429510762355628799e+02,1.432761855548566814e+02,1.436268361518175425e+02,1.440357998897141556e+02,1.442506312990853417e+02,1.444465335372315735e+02,1.445250926334724682e+02,1.447301772234036434e+02,1.448753994869540520e+02,1.450029859547267961e+02,1.450872257757837929e+02,1.450965864355520694e+02,1.450755298266800537e+02,1.449023279536673385e+02,1.447301772234036434e+02,1.446692563703391556e+02,1.447231487364649638e+02,1.448238750990465746e+02,1.448227029177385816e+02,1.448519773074044110e+02,1.448789081682507458e+02,1.449315899247362722e+02,1.449819181428442789e+02,1.450474480961170229e+02,1.450778647747910668e+02,1.450907351706885606e+02,1.450907351706885606e+02,1.451036013514016645e+02,1.450918990082527102e+02,1.450860512066539059e+02,1.450848837724392411e+02,1.451761168005659215e+02,1.452158708764641801e+02,1.452006694263001805e+02,1.451000921325026525e+02,1.450532967749394970e+02,1.450755262564068175e+02,1.451340149465476088e+02,1.451772909555215278e+02,1.451386980330689198e+02,1.449959647310703872e+02,1.447840609225020785e+02,1.446446502960967564e+02,1.446387889929476955e+02,1.447020621712872526e+02,1.447102603153988980e+02,1.446821431797917512e+02,1.446715949214357124e+02,1.447383745086528961e+02,1.448449484616864993e+02,1.449819145712786508e+02,1.450942409476003832e+02,1.451819661083261508e+02,1.452521187160010072e+02,1.453129030139420479e+02
1.330093550215181608e+02,1.332492675199071073e+02,1.334830498916372790e+02,1.337745405785389607e+02,1.341224259355422532e+02,1.345398369963925234e+02,1.350121809822946375e+02,1.354672909010057538e+02,1.358944080399547261e+02,1.362600437916679539e+02,1.366170261572518143e+02,1.369629741206450717e+02,1.373050778819097673e+02,1.376170610306302251e+02,1.378858358758964187e+02,1.381281997680779341e+02,1.383716183977629157e+02,1.386077524509111640e+02,1.388163449272381058e+02,1.389914873418512684e+02,1.391153548794677590e+02,1.391284559084581360e+02,1.390855825924226110e+02,1.390129311384910125e+02,1.389855363959474062e+02,1.390081728104868262e+02,1.390760602500096752e+02,1.391784686467537995e+02,1.392760894769671722e+02,1.393879716147209251e+02,1.394926852666769150e+02,1.396045123606677976e+02,1.397044131483261822e+02,1.398268774012339009e+02,1.399564347168485483e+02,1.400954598284348549e+02,1.402023643470438969e+02,1.402926184606813536e+02,1.403709723453974334e+02,1.404374511870660172e+02,1.404872983176123284e+02,1.405240873335750962e+02,1.405751073596947549e+02,1.406391724575964304e+02,1.407186505512606232e+02,1.408028564170913910e+02,1.408965263649112671e+02,1.409842481923083710e+02,1.410885332805622738e+02,1.411619908462175772e+02,1.412366157936458535e+02,1.413053095422341130e+02,1.413870124766569347e+02,1.414568591586914295e+02,1.414935527973976264e+02,1.415326083816895562e+02,1.415858627670686474e+02,1.416816977933444832e+02,1.418035285869478344e+02,1.419347729348152143e+02,1.420636021899373986e+02,1.421912045690197033e+02,1.423411944754894876e+02,1.425241584396197254e+02,1.427494773446952081e+02,1.430594759226289625e+02,1.433821278520379678e+02,1.437561652445399432e+02,1.439759032378563006e+02,1.442201213849093620e+02,1.443527093245025981e+02,1.445262696864607506e+02,1.446364430056846686e+02,1.447805438362300379e+02,1.449210515616546786e+02,1.450029823834507852e+02,1.450369179977695353e+02,1.449128634968159304e+02,1.447782062349169223e+02,1.447243213554302770e+02,1.447981109327013201e+02,1.448789045952793799e+02,1.448695396706490897e+02,1.448789045952793799e+02,1.448952968779175876e+02,1.449421207192949055e+02,1.450123425291794774e+02,1.451117905318531598e+02,1.451807919749938947e+02,1.452041843967903674e+02,1.451948312558055250e+02,1.451702744959769120e+02,1.451223175633801361e+02,1.450708420151721612e+02,1.450427669151777081e+02,1.451047722703129921e+02,1.451527289307495039e+02,1.451644213499822627e+02,1.451047722703129921e+02,1.450486157001010952e+02,1.450181920022444615e+02,1.450193597383767496e+02,1.450181955733110044e+02,1.449444675855295372e+02,1.447571240058389321e+02,1.445075113690932653e+02,1.443327649720266095e+02,1.443257227119188997e+02,1.444242552567058624e+02,1.444817134622697949e+02,1.444723383124819520e+02,1.444758522418308644e+02,1.445637824711456005e+02,1.447044004376152202e+02,1.448578303672197194e+02,1.449842539362883258e+02,1.450848837724392411e+02,1.451737756121718235e+02,1.452567924843076526e+02
1.330937550593541800e+02,1.333288095170195788e+02,1.335565363865331960e+02,1.338371521025077300e+02,1.341717665720257742e+02,1.345735077266431290e+02,1.350241987278322995e+02,1.354636938629899987e+02,1.358776200897636954e+02,1.362456674556822804e+02,1.366134338504307379e+02,1.369629741206450717e+02,1.373038809780212546e+02,1.376098917199848302e+02,1.378822533585578185e+02,1.381186490690326991e+02,1.383465639105604623e+02,1.385743678630886393e+02,1.387889375407189618e+02,1.389819592447141190e+02,1.391177352631917188e+02,1.391498854772526101e+02,1.391379770659479505e+02,1.391105904374031184e+02,1.391141664996534928e+02,1.391403682235263091e+02,1.391832323189902922e+02,1.392582339339026021e+02,1.393260809269323772e+02,1.394153400419255036e+02,1.394938725661750141e+02,1.395926133726687794e+02,1.396937074243596726e+02,1.398316299398483693e+02,1.399861438950497359e+02,1.401334711387983134e+02,1.402546188757174264e+02,1.403424841484691115e+02,1.404208280147548749e+02,1.404801740700279424e+02,1.405323913585131663e+02,1.405739232821684368e+02,1.406344296756151380e+02,1.407150924009226287e+02,1.408253868009915095e+02,1.409486865900411203e+02,1.410861647223028399e+02,1.412224062993787470e+02,1.413479411743368246e+02,1.414438395707481391e+02,1.415184104532714855e+02,1.415775822403036273e+02,1.416284576853977910e+02,1.416639495682163101e+02,1.416544866152786426e+02,1.416426584732233209e+02,1.416521253508889799e+02,1.417408461217198123e+02,1.418661998981760348e+02,1.420009627446443119e+02,1.421203133995255712e+02,1.422349043944076925e+02,1.423553589201299587e+02,1.424922919375978836e+02,1.426515794413836602e+02,1.428933156887119367e+02,1.431619656157274107e+02,1.434998032138163921e+02,1.436997422355123035e+02,1.439441882486906934e+02,1.440733817469428004e+02,1.442447652274337315e+02,1.443867199158442531e+02,1.445379862758741751e+02,1.446938530508729741e+02,1.447887395760574236e+02,1.448777362310194121e+02,1.448133395762098985e+02,1.447301807983754998e+02,1.447172891399079617e+02,1.448191863427253452e+02,1.448753887678968226e+02,1.448484611212154505e+02,1.448437763736585566e+02,1.448625148655805219e+02,1.449151999078795825e+02,1.450053215587423097e+02,1.451492168171797630e+02,1.452556222665033374e+02,1.453105702310216429e+02,1.452953745063055635e+02,1.452474484287025120e+02,1.451515582316060886e+02,1.450439345403374318e+02,1.449772357781527603e+02,1.450181955733110044e+02,1.450919061483441510e+02,1.451340113770891094e+02,1.451024304271404048e+02,1.450404245075000063e+02,1.449690423302192244e+02,1.449081727493963285e+02,1.448344137767979305e+02,1.447196308488167347e+02,1.445309563823092844e+02,1.443069508419572458e+02,1.441579059581250135e+02,1.441520343899798036e+02,1.442330255564622803e+02,1.442623630772162642e+02,1.442271627014882256e+02,1.442248132277038621e+02,1.443198653644377032e+02,1.444770259272033854e+02,1.446458196806264027e+02,1.447969386376546481e+02,1.449350978552236597e+02,1.450603128721353414e+02,1.451667554865507554e+02
1.331962270388447109e+02,1.334179817887294348e+02,1.336336263011439200e+02,1.338997563823848509e+02,1.342078657825871915e+02,1.345771146527225710e+02,1.349845515705507069e+02,1.354000711487389026e+02,1.358008574914494488e+02,1.361797488603443185e+02,1.365559496312015426e+02,1.369186944302443862e+02,1.372596371580179948e+02,1.375549184065857844e+02,1.378046227301618387e+02,1.380231490318017222e+02,1.382272497440760048e+02,1.384503439507843723e+02,1.386578263258654147e+02,1.388520999090119403e+02,1.389950644126851671e+02,1.390558082025726776e+02,1.390843904941560254e+02,1.390963004220538437e+02,1.391308362180456584e+02,1.391784686467537995e+02,1.392356182381498115e+02,1.393189432913147243e+02,1.393927328923211917e+02,1.394724570785215292e+02,1.395343258421027599e+02,1.396223493039955201e+02,1.397281933623272039e+02,1.398684765373188839e+02,1.400182223931219596e+02,1.401536589711495822e+02,1.402736155047574016e+02,1.403591034220550569e+02,1.404398201756524145e+02,1.405039077717966620e+02,1.405679883554569756e+02,1.406296832143669917e+02,1.407091632830613435e+02,1.408170855275569693e+02,1.409522425405263562e+02,1.411063060253238746e+02,1.412757026199619190e+02,1.414462058181712223e+02,1.415941467134090885e+02,1.417183720020895521e+02,1.418094436310256015e+02,1.418768442846374569e+02,1.419217636372374614e+02,1.419430378797989647e+02,1.419335824202652816e+02,1.419111242255898446e+02,1.419134909725267448e+02,1.419832342449345219e+02,1.420978636998349316e+02,1.422183630667777265e+02,1.423329138914260170e+02,1.424368100230079790e+02,1.425442102975339367e+02,1.426421401341072510e+02,1.427494737457812448e+02,1.429168916477430571e+02,1.430995374935160953e+02,1.433409349694729826e+02,1.434868632557713113e+02,1.436726983230726660e+02,1.437702738110416476e+02,1.438983644567314286e+02,1.441884225530961317e+02,1.443480088718513912e+02,1.445075042132824592e+02,1.444512251683642035e+02,1.445837030084448429e+02,1.445520562537408296e+02,1.445555763181390034e+02,1.445825333564736184e+02,1.447454025961715729e+02,1.448133324284947321e+02,1.447840573482510536e+02,1.447817126291970453e+02,1.448074783851638472e+02,1.448777326580320164e+02,1.449748927783857653e+02,1.451269937252655495e+02,1.452462710316686980e+02,1.453269313538662004e+02,1.453339434443472555e+02,1.452965445385962653e+02,1.451995060852156030e+02,1.450614839883320997e+02,1.449702138590556046e+02,1.449865968517563601e+02,1.450755298266800537e+02,1.451316733710696667e+02,1.451176377462819573e+02,1.450579741942900114e+02,1.449748927783857653e+02,1.448859289634834795e+02,1.447664857505618556e+02,1.446294120746565000e+02,1.444606081918992118e+02,1.443010859418231462e+02,1.441884261350846828e+02,1.441391265467161702e+02,1.440992099367803689e+02,1.440346243699036677e+02,1.439524085946446803e+02,1.439641561530945637e+02,1.440616421978272115e+02,1.442377279297274981e+02,1.444101859139354360e+02,1.445848798091855087e+02,1.447336913977713948e+02,1.448964687369399371e+02,1.450334042987411749e+02
1.332673425730902181e+02,1.334842485196696771e+02,1.336854116974934072e+02,1.339563287687137745e+02,1.342632050798558225e+02,1.346348257671524493e+02,1.350229962326580448e+02,1.354168787549629087e+02,1.358068533945175318e+02,1.361749535695846589e+02,1.365439687751293718e+02,1.368947542802353610e+02,1.372237580355567843e+02,1.374903781604705273e+02,1.377102518117796990e+02,1.378953879013171218e+02,1.380804515087913842e+02,1.382797558882120939e+02,1.384825479247450062e+02,1.386816660440265423e+02,1.388389903385870525e+02,1.389366896812505274e+02,1.389974454746010792e+02,1.390415163310739786e+02,1.390903473173765974e+02,1.391486971950395741e+02,1.392237086295071435e+02,1.393153689788902057e+02,1.394117701918461876e+02,1.394914907019515908e+02,1.395581159680816654e+02,1.396294853151018742e+02,1.397341372909504571e+02,1.398577787833007164e+02,1.399980204201867764e+02,1.401192096212787419e+02,1.402356104546996107e+02,1.403222951450288178e+02,1.404137061676812550e+02,1.404955995121758292e+02,1.405881573180076316e+02,1.406688298033683395e+02,1.407708353442944258e+02,1.408977130561804074e+02,1.410529852383969001e+02,1.412212242586941215e+02,1.414024042531038390e+02,1.415894161485287555e+02,1.417491264607827475e+02,1.418922149293932193e+02,1.419926955691478270e+02,1.420600572041323630e+02,1.421096800832436884e+02,1.421545728663776345e+02,1.421864712570208553e+02,1.421911973591502942e+02,1.421994669793706976e+02,1.422561629115053847e+02,1.423423655599793847e+02,1.424533370537661199e+02,1.425619095215406560e+02,1.426692729127846633e+02,1.427695190803573269e+02,1.428579485171806027e+02,1.429546045510512613e+02,1.430936488356197174e+02,1.432585291831755967e+02,1.433950794133925228e+02,1.434621558921044766e+02,1.435245111196159087e+02,1.435986120133662780e+02,1.437091426251872690e+02,1.440710274251505325e+02,1.441989892232210764e+02,1.443010823612606828e+02,1.441074294649329772e+02,1.441978215359179671e+02,1.441731736193956408e+02,1.442834905078050838e+02,1.444207370930931802e+02,1.446493313799442717e+02,1.447266558529246367e+02,1.447032277316622526e+02,1.447161164902132668e+02,1.447582893268044018e+02,1.448449520351177284e+02,1.449514866258582515e+02,1.450930735506277074e+02,1.452065217359274243e+02,1.452848546714672580e+02,1.453012174788161133e+02,1.452766710830260308e+02,1.452006729948229236e+02,1.450895606176127330e+02,1.450170206897644221e+02,1.450427633444505204e+02,1.451293353436453799e+02,1.451807919749938947e+02,1.451702673580760461e+02,1.451071105222488313e+02,1.450193668804775484e+02,1.449046644585231434e+02,1.447699994478332997e+02,1.446294084983481412e+02,1.444934355292788837e+02,1.443656074188389766e+02,1.442506277178821961e+02,1.441132983649995936e+02,1.439547567102463859e+02,1.438090554613997369e+02,1.437197195040113229e+02,1.437561616572270964e+02,1.438631196145590820e+02,1.440334560131628336e+02,1.441884368810501087e+02,1.443597473259864614e+02,1.445239227308181285e+02,1.447266594279434457e+02,1.448988088666087037e+02
1.333107291177634579e+02,1.335191877432664569e+02,1.337371958428500420e+02,1.340201203310618894e+02,1.343702617467573646e+02,1.347670504442649531e+02,1.351839479359917959e+02,1.355765048432056687e+02,1.359579606706575419e+02,1.362971877069232960e+02,1.366277956076156670e+02,1.369414245812369018e+02,1.372309333513878187e+02,1.374545169281085464e+02,1.376301996124093421e+02,1.377890906291269744e+02,1.379586790650482726e+02,1.381580380058356923e+02,1.383620802407485826e+02,1.385672139484196919e+02,1.387376931044657340e+02,1.388663981551898132e+02,1.389557549651732415e+02,1.390129311384910125e+02,1.390629539569638951e+02,1.391284559084581360e+02,1.392082307179485383e+02,1.392951357575455518e+02,1.393927292605513344e+02,1.394831649615596803e+02,1.395664438197330242e+02,1.396378117135851653e+02,1.397400811324656615e+02,1.398518366729825857e+02,1.399825718023449781e+02,1.400978272583072339e+02,1.402166047386272112e+02,1.403151714967600583e+02,1.404148943587712779e+02,1.405157795082521375e+02,1.406213812913766787e+02,1.407293284222708962e+02,1.408562164375853172e+02,1.410020259169411929e+02,1.411608049962716791e+02,1.413278094883535232e+02,1.415030200028804188e+02,1.416852502202059441e+02,1.418437373781389397e+02,1.419915160738680129e+02,1.420978745175823406e+02,1.421640330969574961e+02,1.422207313121980974e+02,1.422774200992742522e+02,1.423447293366043027e+02,1.423884129810031709e+02,1.424285534065951992e+02,1.424804888895577051e+02,1.425524748543282954e+02,1.426574761709946415e+02,1.427742369322825198e+02,1.428803506940589614e+02,1.429805316223748832e+02,1.430736165130415429e+02,1.431819815499839024e+02,1.433232786842955306e+02,1.434574447134781963e+02,1.435280401438978970e+02,1.435350980696059651e+02,1.435409819424248781e+02,1.435986120133662780e+02,1.436679940047578725e+02,1.439606322937550544e+02,1.440369754047463857e+02,1.440909901734639220e+02,1.438172867622727154e+02,1.437667476289942101e+02,1.437056193076552972e+02,1.439359640861255230e+02,1.442295085743280083e+02,1.445215757551029583e+02,1.446118303732559980e+02,1.446212078992464853e+02,1.446622227161357728e+02,1.447301772234036434e+02,1.448180177144880076e+02,1.449339297410272707e+02,1.450509580334457951e+02,1.451562409958912667e+02,1.452193856356534525e+02,1.452357527072234689e+02,1.452018434675579215e+02,1.451445410624116334e+02,1.450895641876910531e+02,1.450802068421128865e+02,1.451503875270826143e+02,1.452263971664795577e+02,1.452661433277616538e+02,1.452474377251178907e+02,1.451948241185954203e+02,1.451258264776012652e+02,1.450146851911450199e+02,1.448882727597913913e+02,1.447395470610017583e+02,1.446024561002708992e+02,1.444652995842245105e+02,1.443069544224449601e+02,1.440827737584825172e+02,1.438360869828212003e+02,1.436656328469410937e+02,1.436068347555326454e+02,1.436820959737041790e+02,1.437996582280076154e+02,1.439594600543971978e+02,1.440851279842315762e+02,1.442271627014882256e+02,1.443726486750216509e+02,1.445790136395386298e+02,1.447641444515211333e+02
1.333107327956917629e+02,1.335107573841484623e+02,1.337492425753719090e+02,1.340706713993278072e+02,1.344749002696265165e+02,1.349280855956850473e+02,1.353892711983875188e+02,1.357984598421209625e+02,1.361713543273647815e+02,1.364780943287235004e+02,1.367583033950497224e+02,1.370096340259473777e+02,1.372213674556296041e+02,1.373875728685780473e+02,1.375226439473129858e+02,1.376815761103516706e+02,1.378786744572391854e+02,1.381102965924278010e+02,1.383465711919326395e+02,1.385684038498282575e+02,1.387543775879354371e+02,1.388949932104979439e+02,1.389914909771012503e+02,1.390593847295526757e+02,1.391094020441369139e+02,1.391665610462789004e+02,1.392284681538342852e+02,1.392987066111686545e+02,1.393843978967154840e+02,1.394653183352312453e+02,1.395450284836492187e+02,1.396235398577516662e+02,1.397377043320570920e+02,1.398672939579458330e+02,1.400158472366986189e+02,1.401453432606056708e+02,1.402747932509704469e+02,1.403769066714874043e+02,1.404896706230839527e+02,1.405988424559092209e+02,1.407198414201922105e+02,1.408408055524860742e+02,1.409818789708352256e+02,1.411382984333339436e+02,1.412946517599747267e+02,1.414604102024306940e+02,1.416237275746464093e+02,1.417952495237819903e+02,1.419430487023832370e+02,1.420742405350422928e+02,1.421628541876560803e+02,1.422195489938618493e+02,1.422821449393642297e+02,1.423577153993864499e+02,1.424379951837957492e+02,1.425064500015643034e+02,1.425666339563086353e+02,1.426279842661631392e+02,1.426987611136096348e+02,1.427978215676818650e+02,1.429062801618136973e+02,1.429982107451179445e+02,1.430901112741835277e+02,1.431678565931268849e+02,1.432703002087815776e+02,1.434021404068826655e+02,1.435503872864094888e+02,1.436233118678687788e+02,1.436280132965386542e+02,1.436268397406803388e+02,1.436938614598381037e+02,1.437644016006673269e+02,1.438901497636769591e+02,1.439218706172607085e+02,1.439336158193578399e+02,1.437796755628261280e+02,1.436785759260171176e+02,1.435962610791033285e+02,1.438067133544209355e+02,1.441250429704437579e+02,1.444183928189304993e+02,1.445121983851494178e+02,1.445426799262817781e+02,1.446001133757030175e+02,1.446950329485742373e+02,1.447922565540836786e+02,1.449187152027351999e+02,1.450345791078985940e+02,1.451281716762184715e+02,1.451784579673769713e+02,1.451761168005659215e+02,1.451117869620843521e+02,1.450556354952228730e+02,1.450532967749394970e+02,1.451117905318531598e+02,1.452263971664795577e+02,1.452790041821169211e+02,1.453035503491020108e+02,1.452661433277616538e+02,1.452334120705478426e+02,1.451819661083261508e+02,1.450895677577693164e+02,1.449643597340106567e+02,1.448004519332594100e+02,1.446364430056846686e+02,1.444606117704134363e+02,1.442776215379731752e+02,1.440393228366231710e+02,1.438067025943154249e+02,1.436750414838440975e+02,1.436715141766688362e+02,1.437667440418090337e+02,1.438584183095430831e+02,1.439559361382777638e+02,1.440322840677648628e+02,1.441226926547230960e+02,1.442342002617454000e+02,1.443996200169547137e+02,1.445590856055271729e+02
1.333131491892476674e+02,1.334950985579490634e+02,1.337552658414149391e+02,1.340995571585638686e+02,1.345482548811685888e+02,1.350290050143635199e+02,1.355237046371096312e+02,1.359399782188146446e+02,1.362971913637608736e+02,1.365763068994092464e+02,1.368109779719993639e+02,1.370084400164981275e+02,1.371496078557573242e+02,1.372692022669784819e+02,1.373863761779613810e+02,1.375692549922471812e+02,1.378129845463031984e+02,1.381091018075525199e+02,1.383966714544280308e+02,1.386470938393811707e+02,1.388413722737844864e+02,1.389748121225175623e+02,1.390724802297897895e+02,1.391439331307607858e+02,1.391987038877894065e+02,1.392403776268647562e+02,1.392725184295074428e+02,1.393058518590614767e+02,1.393594100642297917e+02,1.394284352809080474e+02,1.395105307067145191e+02,1.396152131681871538e+02,1.397495954519609427e+02,1.399005753461337918e+02,1.400586232654094943e+02,1.401940424137945911e+02,1.403258532971178170e+02,1.404326986770411168e+02,1.405501902683913045e+02,1.406735793988483465e+02,1.408064173637066006e+02,1.409498767338895391e+02,1.411015727366401507e+02,1.412650439754078207e+02,1.414177917638432405e+02,1.415811248702603393e+02,1.417337423459990760e+02,1.418910242697666035e+02,1.420234187457068629e+02,1.421309499923634121e+02,1.422160056189271131e+02,1.422845055327597379e+02,1.423577190025531536e+02,1.424344540982305602e+02,1.425123529189324358e+02,1.425984897229915873e+02,1.426787078414607208e+02,1.427541882889776161e+02,1.428331917125526616e+02,1.429239597822506198e+02,1.430182370310220676e+02,1.430948208238837083e+02,1.431607866881516316e+02,1.432067220551819560e+02,1.432679467578343520e+02,1.433715392052326933e+02,1.434845078658809143e+02,1.435739137286352047e+02,1.436056647063664968e+02,1.436515301043300497e+02,1.437326566556264424e+02,1.438137683126742559e+02,1.438666518194960986e+02,1.438913258665306785e+02,1.439054208055147228e+02,1.438454902303754466e+02,1.437573418808100314e+02,1.436856303326834450e+02,1.438537169294666569e+02,1.441262145383057032e+02,1.443703039958143677e+02,1.444594380152695408e+02,1.444969599237984426e+02,1.445661219308258865e+02,1.446762826898939807e+02,1.447863948982256375e+02,1.449210515616546786e+02,1.450392568664701685e+02,1.451316805100519218e+02,1.451784579673769713e+02,1.451620836229264455e+02,1.450848802022958921e+02,1.450146816200301032e+02,1.450287264342565550e+02,1.451012666373608226e+02,1.452240635793684760e+02,1.452462745995468367e+02,1.452532853823327628e+02,1.452018398990517198e+02,1.451901492027932932e+02,1.451597458743889320e+02,1.450977573865033037e+02,1.449819181428442789e+02,1.448285637724451931e+02,1.446551960307347713e+02,1.444653067411313714e+02,1.442647194012452019e+02,1.440522459140299816e+02,1.438760397478698110e+02,1.438078790301957497e+02,1.438407850577786462e+02,1.439253877739619725e+02,1.439794269123772210e+02,1.440146648916766026e+02,1.440487231246793272e+02,1.440956877217365104e+02,1.441672987830972943e+02,1.442717488650274049e+02,1.443656074188389766e+02
1.333023065978674708e+02,1.334758249770276848e+02,1.337251635437655750e+02,1.340839153368123675e+02,1.345338262359682062e+02,1.350278025304051539e+02,1.355116986578013325e+02,1.359279858950308153e+02,1.362648382475770745e+02,1.365200207891421087e+02,1.367200002531929499e+02,1.368768102434083289e+02,1.369785303701210069e+02,1.370790274209516042e+02,1.372034249405891728e+02,1.374234393113897568e+02,1.377222028287833950e+02,1.380697121808566976e+02,1.383966678141575812e+02,1.386602056274381880e+02,1.388592418191806814e+02,1.389950607774658806e+02,1.391141592312651483e+02,1.392141821516978553e+02,1.392927527496891571e+02,1.393213225168021836e+02,1.393189432913147243e+02,1.393010895849511144e+02,1.393118019007060298e+02,1.393534607042913649e+02,1.394498530549203110e+02,1.395961852834045089e+02,1.397710000396440364e+02,1.399386088759179074e+02,1.400835753344820205e+02,1.402082976041010056e+02,1.403282302116218148e+02,1.404457534505249328e+02,1.405762914335734308e+02,1.407115342173350996e+02,1.408609600700465876e+02,1.410150647882987300e+02,1.411797672925076199e+02,1.413467559254789876e+02,1.415136752779956737e+02,1.416840624716801926e+02,1.418425501623771652e+02,1.419903257534675731e+02,1.421167726030269591e+02,1.422124622071767135e+02,1.422951370092671937e+02,1.423707081680740885e+02,1.424521627537537256e+02,1.425406775418591110e+02,1.426350658763250863e+02,1.427400408560459368e+02,1.428343682522940412e+02,1.429133485294957495e+02,1.429923130179390682e+02,1.430689030529101160e+02,1.431395832097003336e+02,1.431902297997798428e+02,1.432338035531035985e+02,1.432396931810248475e+02,1.432644183446450938e+02,1.433268136142086178e+02,1.434256782755541053e+02,1.434927444700962837e+02,1.435280329638289913e+02,1.435880236918511628e+02,1.436997386475208600e+02,1.438102426479039764e+02,1.438889772418118582e+02,1.439289228144299955e+02,1.439524121795683413e+02,1.439618045283978063e+02,1.439700279623660890e+02,1.439488845933162793e+02,1.440299294108251615e+02,1.441919507899879704e+02,1.443703039958143677e+02,1.444559202985078059e+02,1.444934426854555909e+02,1.445567460856067328e+02,1.446809703768781787e+02,1.448027929132033478e+02,1.449549978612432142e+02,1.450720166537990394e+02,1.451597494434869873e+02,1.451901527714641134e+02,1.451667626245502447e+02,1.450977466766102566e+02,1.450415885725077487e+02,1.450439309696263877e+02,1.450872222056730152e+02,1.451655919899607738e+02,1.451492203864254407e+02,1.451281645371381614e+02,1.450638262047532407e+02,1.450614875588001382e+02,1.450334078695977382e+02,1.449936219000557003e+02,1.449023208083606846e+02,1.447957734856283309e+02,1.446399655551294927e+02,1.444711717639261224e+02,1.442940536292528577e+02,1.441332617582528997e+02,1.440193600982869384e+02,1.439935211834639972e+02,1.440463686016332190e+02,1.441039073506820500e+02,1.441097799057422435e+02,1.440886467454034801e+02,1.440992135198866322e+02,1.441226926547230960e+02,1.441614345727880959e+02,1.441872584044230052e+02,1.442130798935423854e+02
1.332938692374121388e+02,1.334457035960080589e+02,1.336697615515992652e+02,1.340068858386891861e+02,1.344231873732469467e+02,1.348812214901655580e+02,1.353256391466165951e+02,1.357204878606908096e+02,1.360359026792012287e+02,1.362780218440202589e+02,1.364577365673735017e+02,1.366014580819456796e+02,1.367056339553916473e+02,1.368229484871056911e+02,1.369833139962392465e+02,1.372500682027425114e+02,1.375776247831630599e+02,1.379359917677796261e+02,1.382523073768178961e+02,1.385016224170444730e+02,1.386828519928698142e+02,1.388282623743940007e+02,1.389771896628002992e+02,1.391189236329274195e+02,1.392248966990504755e+02,1.392582339339026021e+02,1.392403812599652042e+02,1.391927558675275804e+02,1.391784686467537995e+02,1.392165656081430711e+02,1.393260845592856754e+02,1.394962544166129987e+02,1.396853857974155062e+02,1.398506540447140196e+02,1.399849580363446648e+02,1.401002091757809467e+02,1.402261113357608906e+02,1.403519768222329844e+02,1.404967874521362887e+02,1.406498525529435710e+02,1.408147152525643264e+02,1.409830617748825716e+02,1.411489643649715049e+02,1.413242607614660074e+02,1.414959223311477672e+02,1.416746000536807060e+02,1.418366392837448871e+02,1.419938750604196116e+02,1.421262266646743910e+02,1.422349043944076925e+02,1.423352849410263161e+02,1.424320981568872071e+02,1.425347787284483161e+02,1.426421473342922468e+02,1.427565527326957522e+02,1.428768143689355270e+02,1.429769963997773630e+02,1.430594759226289625e+02,1.431254455668074002e+02,1.431902226118569388e+02,1.432349750193600357e+02,1.432703002087815776e+02,1.432808995003068162e+02,1.432797210206358045e+02,1.432879630989460225e+02,1.433421168089765843e+02,1.434092048298170994e+02,1.434103792250214724e+02,1.434350871723334535e+02,1.434809783375743564e+02,1.436327182406253087e+02,1.437549993655964613e+02,1.438642994115834881e+02,1.439383195042130410e+02,1.439888219742183537e+02,1.440217040889883720e+02,1.440193565141888143e+02,1.440181845117108992e+02,1.440921654635266691e+02,1.442541480187378511e+02,1.443984495829400316e+02,1.444875745581111346e+02,1.445332997001968920e+02,1.446083181882819986e+02,1.447301772234036434e+02,1.448625148655805219e+02,1.450275551694459750e+02,1.451574045352447797e+02,1.452474484287025120e+02,1.452708275377372047e+02,1.452299082110109225e+02,1.451644177809496910e+02,1.450954047692644622e+02,1.450837056224398225e+02,1.451000849926390970e+02,1.451398580831411209e+02,1.450942445176135038e+02,1.450322366259902651e+02,1.449456356526496279e+02,1.449257349340043675e+02,1.449011525481061540e+02,1.448765678615773709e+02,1.448191899165041150e+02,1.447582929014006936e+02,1.446563689456302768e+02,1.445379970083981789e+02,1.444043231792156234e+02,1.442893593553866367e+02,1.442224708975688259e+02,1.442072094628046557e+02,1.442342002617454000e+02,1.442318544277486012e+02,1.441954754012273270e+02,1.441414767275375652e+02,1.441508665102973623e+02,1.441896010249030269e+02,1.442588464598044311e+02,1.442647158202205446e+02,1.442365532390767271e+02
1.333276068725557479e+02,1.334601577998548123e+02,1.336444697007812010e+02,1.339274426558066580e+02,1.342764405704990622e+02,1.346684867318832630e+02,1.350578344599292677e+02,1.354216813491083826e+02,1.357240867229082255e+02,1.359627617356830456e+02,1.361389965378836564e+02,1.362888061630264929e+02,1.364253941482266441e+02,1.365846944279057311e+02,1.367822504284061438e+02,1.370610830949231627e+02,1.373875765170203636e+02,1.377269787726509662e+02,1.380052416389165728e+02,1.382093505655287231e+02,1.383692302374449810e+02,1.385338226029419957e+02,1.387150387081561576e+02,1.388914152973348450e+02,1.390188889695726857e+02,1.390796329708596204e+02,1.390748717593565402e+02,1.390427085504339288e+02,1.390355624535735046e+02,1.390891552325853127e+02,1.392070426010770916e+02,1.393701208762803390e+02,1.395497915776393825e+02,1.397079804506494725e+02,1.398518403006712560e+02,1.399790141838452655e+02,1.401239623091457247e+02,1.402748004986284514e+02,1.404398201756524145e+02,1.406095164342032149e+02,1.407850692768321323e+02,1.409546119496308734e+02,1.411193448562692083e+02,1.412875500133833953e+02,1.414698855023401620e+02,1.416592235388387735e+02,1.418378229108742516e+02,1.420009663515714351e+02,1.421415862557083756e+02,1.422797879335390689e+02,1.424049459991549611e+02,1.425241584396197254e+02,1.426421437341998057e+02,1.427718834128626781e+02,1.429180714794716209e+02,1.430547694435408630e+02,1.431702072024891663e+02,1.432443933047461542e+02,1.432961977733952494e+02,1.433315124220455914e+02,1.433515282572980709e+02,1.433503500458591589e+02,1.433421132167660517e+02,1.433209220419627172e+02,1.433221003653678736e+02,1.433456443395622273e+02,1.433585938396283836e+02,1.433020934076215553e+02,1.432820779755161311e+02,1.433550628646792688e+02,1.435492134292380797e+02,1.437197302672657315e+02,1.438525478484772293e+02,1.439618116980141167e+02,1.440463721853967627e+02,1.441039037676343355e+02,1.441062542373107931e+02,1.441684737600387507e+02,1.442471109544443379e+02,1.443949310926357157e+02,1.444699873184773651e+02,1.445485397214163186e+02,1.446141765733636930e+02,1.447044040129304108e+02,1.448273916118719171e+02,1.449608521964728425e+02,1.451269972948221607e+02,1.452743308272646345e+02,1.453643292620189982e+02,1.453748457397162497e+02,1.453164092811921364e+02,1.452380861861739731e+02,1.451690931706584138e+02,1.451328370225430149e+02,1.451340042381720536e+02,1.451562267193017419e+02,1.451047687004463569e+02,1.450158529430865428e+02,1.448964687369399371e+02,1.448355823327389089e+02,1.447875672397225344e+02,1.447653168908594807e+02,1.447465715429792681e+02,1.447301772234036434e+02,1.446739406037063986e+02,1.445977742076872232e+02,1.445204058374572469e+02,1.444500549520267327e+02,1.444031456064781196e+02,1.443656109985771536e+02,1.443527093245025981e+02,1.443022639444041602e+02,1.442318615906300465e+02,1.441555630771936194e+02,1.441684737600387507e+02,1.442248132277038621e+02,1.443257298724155362e+02,1.443550577312669247e+02,1.443292456541857405e+02
1.333950869864793844e+02,1.335143714615277872e+02,1.336589223307003067e+02,1.338816948790741890e+02,1.341380739765222074e+02,1.344328146502592176e+02,1.347370053225494644e+02,1.350554296238477718e+02,1.353496486523801536e+02,1.356077018621131742e+02,1.358080540306573312e+02,1.359771500141461615e+02,1.361437921804906637e+02,1.363319447071911554e+02,1.365619436021995057e+02,1.368325261431036211e+02,1.371340572722845650e+02,1.374377836484971454e+02,1.376911360937315862e+02,1.378798625681620820e+02,1.380350881096961757e+02,1.382093505655287231e+02,1.383954774441144195e+02,1.385803281556417232e+02,1.387221974516866112e+02,1.388246911754368966e+02,1.388759324774351853e+02,1.388985674575794746e+02,1.389533736692547450e+02,1.390510467222896978e+02,1.391701329985443181e+02,1.393022774341658874e+02,1.394486619973118309e+02,1.396199754455973903e+02,1.397995328910313901e+02,1.399671298401966624e+02,1.401441578769819785e+02,1.403163599883010875e+02,1.405050993078912711e+02,1.406984884664528863e+02,1.408858568292336031e+02,1.410494302472164350e+02,1.412010892207320580e+02,1.413562341948774019e+02,1.415338002453637500e+02,1.417089104984094661e+02,1.418874811313926898e+02,1.420565085755824271e+02,1.422195489938618493e+02,1.423978594901836345e+02,1.425548335462910359e+02,1.426857847599387128e+02,1.428060725474147716e+02,1.429652108435352034e+02,1.431372287771666265e+02,1.432844277267912503e+02,1.433786007380089131e+02,1.434503849915246860e+02,1.434903891255816006e+02,1.435139130306091602e+02,1.435092098309352764e+02,1.434797970316064948e+02,1.434339128715794232e+02,1.433938977765918708e+02,1.433844804362176433e+02,1.433903636139417017e+02,1.433680047863459208e+02,1.432856097815044905e+02,1.432714823171308467e+02,1.433750699918213058e+02,1.435833216403477763e+02,1.437714503914662600e+02,1.439054208055147228e+02,1.440557686603959269e+02,1.441590845560967864e+02,1.442353749621565839e+02,1.442658868128557970e+02,1.443855494276014042e+02,1.444699873184773651e+02,1.445708079442223948e+02,1.445837030084448429e+02,1.446633920246749199e+02,1.447430575376361048e+02,1.448519773074044110e+02,1.449702138590556046e+02,1.451024304271404048e+02,1.452649767211255494e+02,1.454262520000995664e+02,1.455255396660380143e+02,1.455442242047190007e+02,1.454788202483758255e+02,1.453853582047537429e+02,1.452825109247578439e+02,1.452205488852833355e+02,1.452123632050993933e+02,1.452345752555148124e+02,1.451761132316976273e+02,1.450603164426196372e+02,1.449081763219700747e+02,1.448063097053843080e+02,1.447336878228462638e+02,1.447161200653724791e+02,1.447407160333844445e+02,1.447746890713792709e+02,1.447723442699129919e+02,1.447254939692692233e+02,1.446692527945575080e+02,1.446094877294596586e+02,1.445590856055271729e+02,1.445063306577904427e+02,1.444488811520739659e+02,1.443632662602646519e+02,1.442717596078334736e+02,1.441978179540477640e+02,1.442201178033203632e+02,1.442952209193716726e+02,1.444254291609877328e+02,1.445004735391997883e+02,1.444992963756971562e+02
