3.881535101996527715e+02,3.880925937228732892e+02,3.880302971733941035e+02,3.879662068684895644e+02,3.879003601074218750e+02,3.878337063259548358e+02,3.877680596245659785e+02,3.877056274414062500e+02,3.876483595106336679e+02,3.875975104437933965e+02,3.875535040961371465e+02,3.875168287489149179e+02,3.874866807725694571e+02,3.874617207845051894e+02,3.874396260579426894e+02,3.874190165201823106e+02,3.873990614149305429e+02,3.873794047037760606e+02,3.873600904676649179e+02,3.873413526746961679e+02,3.873234829372829608e+02,3.873066304524739394e+02,3.872909138997395644e+02,3.872763264973958144e+02,3.872629835340711679e+02,3.872509223090277715e+02,3.872403598361545392e+02,3.872314080132378535e+02,3.872243787977430429e+02,3.872194993760850821e+02,3.872167731391058965e+02,3.872157558865017108e+02,3.872156372070312500e+02,3.872155727810329608e+02,3.872150505913628535e+02,3.872139587402343750e+02,3.872128194173176894e+02,3.872125345865885606e+02,3.872144402398003535e+02,3.872201266818576642e+02,3.872319573296441035e+02,3.872504747178819571e+02,3.872752448187933965e+02,3.873043721516926894e+02,3.873369276258680429e+02,3.873719889322916856e+02,3.874086812337239394e+02,3.874463365342882071e+02,3.874844258626301894e+02,3.875225999620225821e+02,3.875606146918402715e+02,3.875983988444010606e+02,3.876358981662326642e+02,3.876731465657551894e+02,3.877102695041232892e+02,3.877472873263889142e+02,3.877842305501301894e+02,3.878211229112413321e+02,3.878579779730902715e+02,3.878947550455729925e+02,3.879312676323784785e+02,3.879674648708767108e+02,3.880031772189670392e+02,3.880384487575954608e+02,3.880732964409722285e+02,3.881077507866753535e+02,3.881418084038628535e+02,3.881756422254774179e+02,3.882092590332031250e+02,3.882426147460937500e+02,3.882757093641492929e+02,3.883087429470485858e+02,3.883418782552083144e+02,3.883751831054687500e+02,3.884086507161458144e+02,3.884422098795573106e+02,3.884753960503472285e+02,3.885076192220051894e+02,3.885379435221354356e+02,3.885652465820312500e+02,3.885883585611979356e+02,3.886061469184027715e+02,3.886203036838107892e+02,3.886329243977864394e+02,3.886463724772135606e+02,3.886605631510416856e+02,3.886751166449652715e+02,3.886896294487847285e+02,3.887037014431423358e+02,3.887171088324652715e+02,3.887296719021267108e+02,3.887413804796007071e+02,3.887521803114149179e+02,3.887621188693576642e+02,3.887711113823784785e+02,3.887791951497395644e+02,3.887863633897569571e+02,3.887926500108507071e+02,3.887980482313367929e+02,3.888025004069010038e+02,3.888061048719617929e+02,3.888089803059895644e+02,3.888112352159288321e+02,3.888128323025173358e+02,3.888137003580729356e+02,3.888138665093316035e+02,3.888133782280816035e+02,3.888122490776909785e+02,3.888104994032117929e+02,3.888079935709635606e+02,3.888046942816840215e+02,3.888005201551649179e+02,3.887956542968750000e+02,3.887902594672308965e+02,3.887844577365451642e+02,3.887782389322916856e+02,3.887715454101562500e+02,3.887643398708767108e+02,3.887567613389757071e+02
3.882469618055555429e+02,3.881883443196614394e+02,3.881268208821614394e+02,3.880621948242187500e+02,3.879948832194010606e+02,3.879262830946180429e+02,3.878587409125433965e+02,3.877948947482639142e+02,3.877369384765625000e+02,3.876860080295139142e+02,3.876427307128906250e+02,3.876073777940538321e+02,3.875787150065104356e+02,3.875547146267360858e+02,3.875328131781683965e+02,3.875117696126301894e+02,3.874908142089843750e+02,3.874696723090277715e+02,3.874484761555989394e+02,3.874275173611110858e+02,3.874071350097656250e+02,3.873875325520833144e+02,3.873689236111110858e+02,3.873513760036892108e+02,3.873350457085503535e+02,3.873199496799045392e+02,3.873062642415364394e+02,3.872940639919704608e+02,3.872836473253038321e+02,3.872753194173176894e+02,3.872692192925347285e+02,3.872650349934895644e+02,3.872619662814670392e+02,3.872591281467014142e+02,3.872558729383680429e+02,3.872519429524739394e+02,3.872476298014323106e+02,3.872436998155382071e+02,3.872413906521267108e+02,3.872421095106336679e+02,3.872483283148871465e+02,3.872613389756944571e+02,3.872813924153645644e+02,3.873069593641492929e+02,3.873368225097656250e+02,3.873699374728732892e+02,3.874052259657117929e+02,3.874418199327257071e+02,3.874790412055121465e+02,3.875164727105034785e+02,3.875537889268663321e+02,3.875908711751301894e+02,3.876276516384548358e+02,3.876641913519965215e+02,3.877005852593316035e+02,3.877368672688801894e+02,3.877730916341145644e+02,3.878093736436632071e+02,3.878456827799479356e+02,3.878819783528645644e+02,3.879180569118923358e+02,3.879539421929253535e+02,3.879893866644965215e+02,3.880244784884982892e+02,3.880594041612413321e+02,3.880942281087239394e+02,3.881289333767360858e+02,3.881635470920139142e+02,3.881981506347656250e+02,3.882326863606770644e+02,3.882670796712239394e+02,3.883014221191406250e+02,3.883358052571614394e+02,3.883701443142360858e+02,3.884044358995225821e+02,3.884385036892360858e+02,3.884719645182291856e+02,3.885042148166232892e+02,3.885344272189670392e+02,3.885616217719183965e+02,3.885850287543402715e+02,3.886040445963541856e+02,3.886187405056423358e+02,3.886312561035156250e+02,3.886437344021267108e+02,3.886576809353298358e+02,3.886723429361979356e+02,3.886870388454860858e+02,3.887013210720485858e+02,3.887149420844183965e+02,3.887276984320746465e+02,3.887395562065972285e+02,3.887504984537760606e+02,3.887605997721354356e+02,3.887698160807291856e+02,3.887781473795573106e+02,3.887855326334635606e+02,3.887919989691840215e+02,3.887975362141926894e+02,3.888021748860676325e+02,3.888059760199652715e+02,3.888090209960937500e+02,3.888113878038194571e+02,3.888130696614583144e+02,3.888140394422742929e+02,3.888143039279514142e+02,3.888139139811198106e+02,3.888128696017795392e+02,3.888112148708767108e+02,3.888087972005208144e+02,3.888055792914496465e+02,3.888014933268229356e+02,3.887967088487413321e+02,3.887914123535156250e+02,3.887857157389323106e+02,3.887796190049913321e+02,3.887730543348524179e+02,3.887659606933593750e+02,3.887584737141926894e+02
3.883322482638889142e+02,3.882762858072916856e+02,3.882157558865017108e+02,3.881508551703558965e+02,3.880825534396701642e+02,3.880127292209201642e+02,3.879441969129774179e+02,3.878798862033420392e+02,3.878221333821614394e+02,3.877719963921441035e+02,3.877303975423176894e+02,3.876969299316406250e+02,3.876699896918402715e+02,3.876467963324652715e+02,3.876249932183159785e+02,3.876034003363715215e+02,3.875813225640191035e+02,3.875586581759982892e+02,3.875355801052517108e+02,3.875124274359808965e+02,3.874895426432291856e+02,3.874672682020399179e+02,3.874458652072482892e+02,3.874254930284288321e+02,3.874063042534722285e+02,3.873883429633246465e+02,3.873717210557725821e+02,3.873564758300781250e+02,3.873428548177083144e+02,3.873312276204426894e+02,3.873218451605902715e+02,3.873145718044704608e+02,3.873087022569444571e+02,3.873033616807725821e+02,3.872977939181857892e+02,3.872915615505642108e+02,3.872846984863281250e+02,3.872777404785156250e+02,3.872718370225694571e+02,3.872684054904514142e+02,3.872694193522135606e+02,3.872765842013889142e+02,3.872908969455295392e+02,3.873118794759114394e+02,3.873384026421441035e+02,3.873690524631076642e+02,3.874025404188367929e+02,3.874377678765191035e+02,3.874739413791232892e+02,3.875105556911892108e+02,3.875471530490451642e+02,3.875835300021701642e+02,3.876195882161458144e+02,3.876554192437066035e+02,3.876911485460069571e+02,3.877267625596788321e+02,3.877623426649305429e+02,3.877980889214409785e+02,3.878339369032117929e+02,3.878698764377170392e+02,3.879056125217014142e+02,3.879414265950520644e+02,3.879770168728298358e+02,3.880124782986110858e+02,3.880478990342882071e+02,3.880834214952257071e+02,3.881190388997395644e+02,3.881547003851996465e+02,3.881904398600260606e+02,3.882261589898003535e+02,3.882616712782117929e+02,3.882970208062066035e+02,3.883322448730468750e+02,3.883673027886284785e+02,3.884021199544270644e+02,3.884364183213975821e+02,3.884698113335503535e+02,3.885017462836371465e+02,3.885315619574652715e+02,3.885584242078992929e+02,3.885817159016926894e+02,3.886009182400173358e+02,3.886153632269965215e+02,3.886277398003472285e+02,3.886401231553819571e+02,3.886546054416232892e+02,3.886697116427951642e+02,3.886847229003906250e+02,3.886992289225260606e+02,3.887130499945746465e+02,3.887260030110676894e+02,3.887380506727430429e+02,3.887491726345485858e+02,3.887594231499566035e+02,3.887688395182291856e+02,3.887773878309461679e+02,3.887849833170573106e+02,3.887916259765625000e+02,3.887973225911458144e+02,3.888021579318576642e+02,3.888061557345920392e+02,3.888093804253472285e+02,3.888118930392795392e+02,3.888136969672308965e+02,3.888148091634114394e+02,3.888152092827691035e+02,3.888149481879340215e+02,3.888140258789062500e+02,3.888124593098958144e+02,3.888101433648003535e+02,3.888070237901475821e+02,3.888030870225694571e+02,3.887984720865885606e+02,3.887933078342014142e+02,3.887877197265625000e+02,3.887817009819878535e+02,3.887752346462673358e+02,3.887682461208767108e+02,3.887608371310764142e+02
3.884093187120225821e+02,3.883562249077691035e+02,3.882969868977864394e+02,3.882323913574218750e+02,3.881639370388454608e+02,3.880939568413628535e+02,3.880255839029948106e+02,3.879619106716579608e+02,3.879052903917100821e+02,3.878567877875433965e+02,3.878175014919704608e+02,3.877862345377604356e+02,3.877609965006510606e+02,3.877383761935764142e+02,3.877164476182725821e+02,3.876940850151909785e+02,3.876707390679253535e+02,3.876464572482639142e+02,3.876214396158854356e+02,3.875960693359375000e+02,3.875707126193576642e+02,3.875458407931857892e+02,3.875217217339409785e+02,3.874986300998264142e+02,3.874766845703125000e+02,3.874560004340277715e+02,3.874366082085503535e+02,3.874185384114583144e+02,3.874019571940104356e+02,3.873872239854600821e+02,3.873746507432725821e+02,3.873642883300781250e+02,3.873556416829426894e+02,3.873479342990451642e+02,3.873403761121961679e+02,3.873323025173610858e+02,3.873234761555989394e+02,3.873141343858507071e+02,3.873052096896701642e+02,3.872980787489149179e+02,3.872944132486979356e+02,3.872960645887586679e+02,3.873043653700086679e+02,3.873199089898003535e+02,3.873421190049913321e+02,3.873696763780382071e+02,3.874009060329860858e+02,3.874343973795573106e+02,3.874692552354600821e+02,3.875049031575520644e+02,3.875406934950086679e+02,3.875762939453125000e+02,3.876115688747829608e+02,3.876467115614149179e+02,3.876819118923610858e+02,3.877169799804687500e+02,3.877520107693142108e+02,3.877872924804687500e+02,3.878228895399305429e+02,3.878587816026475821e+02,3.878945210774739394e+02,3.879305013020833144e+02,3.879664883083767108e+02,3.880025600857204608e+02,3.880387234157985858e+02,3.880751071506076642e+02,3.881117316351996465e+02,3.881483662923176894e+02,3.881850212944878535e+02,3.882215779622395644e+02,3.882579888237847285e+02,3.882941724989149179e+02,3.883301120334201642e+02,3.883657057020399179e+02,3.884008382161458144e+02,3.884351467556423358e+02,3.884682549370659785e+02,3.884996778700086679e+02,3.885288865831163321e+02,3.885551723904079608e+02,3.885779927571614394e+02,3.885969645182291856e+02,3.886114366319444571e+02,3.886241522894965215e+02,3.886370510525173358e+02,3.886520690917968750e+02,3.886675855848524179e+02,3.886828715006510606e+02,3.886975640190972285e+02,3.887115308973524179e+02,3.887246229383680429e+02,3.887368503146701642e+02,3.887481926812066035e+02,3.887586568196614394e+02,3.887682495117187500e+02,3.887769571940104356e+02,3.887847154405382071e+02,3.887915242513020644e+02,3.887974005805121465e+02,3.888024325900607892e+02,3.888066372341579608e+02,3.888100416395399179e+02,3.888127204047308965e+02,3.888146633572048358e+02,3.888159179687500000e+02,3.888164469401041856e+02,3.888163180881076642e+02,3.888155483669704608e+02,3.888141174316406250e+02,3.888119778103298358e+02,3.888090277777777715e+02,3.888052944607204608e+02,3.888008660210503535e+02,3.887958780924479356e+02,3.887904290093316035e+02,3.887845221625433965e+02,3.887781439887152715e+02,3.887712436252170392e+02,3.887639092339409785e+02
3.884774271647135606e+02,3.884274224175347285e+02,3.883701782226562500e+02,3.883069661458333144e+02,3.882396477593316035e+02,3.881709018283420392e+02,3.881039801703558965e+02,3.880420871310764142e+02,3.879874708387586679e+02,3.879415215386284785e+02,3.879048258463541856e+02,3.878758239746093750e+02,3.878518405490451642e+02,3.878295593261718750e+02,3.878072136773003535e+02,3.877838202582465215e+02,3.877589992947048358e+02,3.877329338921441035e+02,3.877058817545573106e+02,3.876782803005642108e+02,3.876504957411024179e+02,3.876231214735242929e+02,3.875964185926649179e+02,3.875707499186198106e+02,3.875461968315972285e+02,3.875229492187500000e+02,3.875009629991319571e+02,3.874802483452691035e+02,3.874608798556857892e+02,3.874432271321614394e+02,3.874275953504774179e+02,3.874141913519965215e+02,3.874027506510416856e+02,3.873927069769965215e+02,3.873833007812500000e+02,3.873736843532985858e+02,3.873633694118923358e+02,3.873522474500867929e+02,3.873409695095485858e+02,3.873307291666666856e+02,3.873231709798176894e+02,3.873199055989583144e+02,3.873224758572048358e+02,3.873318752712673358e+02,3.873488159179687500e+02,3.873723178439670392e+02,3.874007432725694571e+02,3.874320271809895644e+02,3.874651658799913321e+02,3.874996303982204608e+02,3.875344441731770644e+02,3.875692104763454608e+02,3.876036241319444571e+02,3.876380581325954608e+02,3.876727871365017108e+02,3.877075161404079608e+02,3.877423773871527715e+02,3.877774556477864394e+02,3.878129747178819571e+02,3.878489312065972285e+02,3.878848978678385606e+02,3.879211934407551894e+02,3.879577026367187500e+02,3.879944831000433965e+02,3.880314093695746465e+02,3.880685458713107892e+02,3.881059163411458144e+02,3.881433648003472285e+02,3.881807929144965215e+02,3.882180718315972285e+02,3.882551913791232892e+02,3.882920328776041856e+02,3.883285251193576642e+02,3.883644748263889142e+02,3.883997361924913321e+02,3.884339328342014142e+02,3.884667019314235858e+02,3.884976094563801894e+02,3.885261739095051894e+02,3.885518222384982892e+02,3.885740559895833144e+02,3.885926106770833144e+02,3.886075269911024179e+02,3.886211513943142108e+02,3.886351081000433965e+02,3.886505432128906250e+02,3.886662055121527715e+02,3.886815795898437500e+02,3.886963467068142108e+02,3.887103847927517108e+02,3.887235887315538321e+02,3.887359788682725821e+02,3.887475314670139142e+02,3.887581990559895644e+02,3.887679511176215215e+02,3.887768079969617929e+02,3.887847086588541856e+02,3.887916904025607892e+02,3.887977566189235858e+02,3.888029852973090215e+02,3.888073832194010606e+02,3.888109673394097285e+02,3.888138292100694571e+02,3.888159145779079608e+02,3.888173116048176894e+02,3.888179728190104356e+02,3.888180135091145644e+02,3.888174201117621465e+02,3.888161722819010606e+02,3.888142361111110858e+02,3.888115064832899179e+02,3.888080003526475821e+02,3.888038160536024179e+02,3.887990519205729356e+02,3.887937893337673358e+02,3.887880045572916856e+02,3.887817111545139142e+02,3.887749091254340215e+02,3.887676832411024179e+02
3.885342475043402715e+02,3.884881591796875000e+02,3.884346991644965215e+02,3.883747524685329608e+02,3.883104078504774179e+02,3.882445441351996465e+02,3.881804097493489394e+02,3.881212734646267108e+02,3.880695326063367929e+02,3.880268249511718750e+02,3.879929640028211679e+02,3.879659830729166856e+02,3.879426947699652715e+02,3.879202779134114394e+02,3.878971388075086679e+02,3.878724127875433965e+02,3.878458997938367929e+02,3.878178609212239394e+02,3.877886827256944571e+02,3.877588399251301894e+02,3.877287428114149179e+02,3.876989813910590215e+02,3.876698676215277715e+02,3.876417677137586679e+02,3.876147969563801894e+02,3.875891316731770644e+02,3.875647447374132071e+02,3.875416090223524179e+02,3.875197007921007071e+02,3.874993252224392108e+02,3.874807671440972285e+02,3.874643792046441035e+02,3.874501105414496465e+02,3.874376593695746465e+02,3.874263678656683965e+02,3.874153510199652715e+02,3.874038764105902715e+02,3.873915235731336679e+02,3.873785603841145644e+02,3.873659057617187500e+02,3.873550957573784785e+02,3.873477410210503535e+02,3.873452758789062500e+02,3.873489210340711679e+02,3.873600904676649179e+02,3.873785230848524179e+02,3.874029710557725821e+02,3.874310845269097285e+02,3.874616970486110858e+02,3.874943678114149179e+02,3.875279608832465215e+02,3.875619981553819571e+02,3.875957980685764142e+02,3.876297980414496465e+02,3.876642489963107892e+02,3.876988728841145644e+02,3.877337510850694571e+02,3.877688395182291856e+02,3.878044331868489394e+02,3.878405151367187500e+02,3.878768174913194571e+02,3.879134351942274179e+02,3.879503648546007071e+02,3.879876098632812500e+02,3.880251329210069571e+02,3.880629069010416856e+02,3.881009419759114394e+02,3.881390584309895644e+02,3.881771308051215215e+02,3.882150031195746465e+02,3.882526584201389142e+02,3.882899678548176894e+02,3.883268330891926894e+02,3.883630032009548358e+02,3.883982916937933965e+02,3.884323187934027715e+02,3.884647725423176894e+02,3.884952562120225821e+02,3.885233561197916856e+02,3.885486145019531250e+02,3.885707126193576642e+02,3.885895758734808965e+02,3.886056586371527715e+02,3.886203647189670392e+02,3.886349860297308965e+02,3.886502041286892108e+02,3.886656188964843750e+02,3.886808471679687500e+02,3.886955668131510606e+02,3.887096015082465215e+02,3.887228461371527715e+02,3.887353379991319571e+02,3.887470601399739394e+02,3.887579481336805429e+02,3.887678968641493498e+02,3.887769232855902715e+02,3.887850002712673358e+02,3.887921888563367929e+02,3.887984686957465215e+02,3.888038736979166856e+02,3.888084275987413321e+02,3.888121643066406250e+02,3.888152194552951642e+02,3.888175048828125000e+02,3.888190816243489394e+02,3.888199022081163321e+02,3.888201124403211679e+02,3.888197157118055429e+02,3.888186611599392108e+02,3.888169352213541856e+02,3.888144565158420392e+02,3.888112284342448106e+02,3.888073154025607892e+02,3.888027988009982892e+02,3.887977600097656250e+02,3.887921651204426894e+02,3.887860073513454608e+02,3.887793375651041856e+02,3.887722642686632071e+02
3.885740288628472285e+02,3.885361429850260606e+02,3.884903157552083144e+02,3.884361741807725821e+02,3.883769022623698106e+02,3.883156467013889142e+02,3.882554897732204608e+02,3.881998664008246465e+02,3.881517571343316035e+02,3.881127115885416856e+02,3.880817769368489394e+02,3.880563524034288321e+02,3.880331861707899179e+02,3.880101453993055429e+02,3.879857889811198106e+02,3.879594455295139142e+02,3.879310201009114394e+02,3.879008755154079608e+02,3.878695203993055429e+02,3.878374701605902715e+02,3.878051622178819571e+02,3.877731662326389142e+02,3.877418416341145644e+02,3.877115241156683965e+02,3.876823357476128535e+02,3.876544325086805429e+02,3.876278516981336679e+02,3.876025051540798358e+02,3.875783284505208144e+02,3.875554775661892108e+02,3.875342237684461679e+02,3.875149502224392108e+02,3.874978434244791856e+02,3.874828491210937500e+02,3.874695163302951642e+02,3.874570448133680429e+02,3.874445631239149179e+02,3.874313795301649179e+02,3.874173550075954608e+02,3.874030490451389142e+02,3.873897399902343750e+02,3.873789740668402715e+02,3.873723076714409785e+02,3.873708631727430429e+02,3.873762410481770644e+02,3.873888787163628535e+02,3.874082539876301894e+02,3.874323493109808965e+02,3.874597201877170392e+02,3.874899597167968750e+02,3.875219557020399179e+02,3.875551181369357892e+02,3.875884772406683965e+02,3.876222534179687500e+02,3.876565483940972285e+02,3.876912367078992929e+02,3.877262980143229356e+02,3.877615865071614394e+02,3.877972344292534785e+02,3.878332994249132071e+02,3.878697408040364394e+02,3.879066060384114394e+02,3.879438849555121465e+02,3.879815334743923358e+02,3.880195176866319571e+02,3.880578104654948106e+02,3.880963677300347285e+02,3.881350029839409785e+02,3.881735534667968750e+02,3.882118767632378535e+02,3.882499287923176894e+02,3.882875942654079608e+02,3.883246934678819571e+02,3.883609754774305429e+02,3.883962063259548358e+02,3.884300706651475821e+02,3.884622870551215215e+02,3.884924994574652715e+02,3.885203823513454608e+02,3.885455763075086679e+02,3.885678982204860858e+02,3.885873548719617929e+02,3.886044175889757071e+02,3.886200561523437500e+02,3.886351928710937500e+02,3.886503770616319571e+02,3.886655375162760606e+02,3.886805250379774179e+02,3.886951090494791856e+02,3.887091030544704608e+02,3.887224053276909785e+02,3.887349989149305429e+02,3.887468600802951642e+02,3.887579108344183965e+02,3.887680731879340215e+02,3.887773234049479356e+02,3.887856343587239394e+02,3.887930263943142108e+02,3.887995130750867929e+02,3.888050910101996465e+02,3.888098076714409785e+02,3.888137105305989394e+02,3.888169657389323106e+02,3.888194681803385606e+02,3.888212585449218750e+02,3.888222757975260606e+02,3.888226928710937500e+02,3.888224995930989394e+02,3.888216620551215215e+02,3.888201395670573106e+02,3.888179185655382071e+02,3.888149719238281250e+02,3.888113572862413321e+02,3.888071051703558965e+02,3.888023037380642108e+02,3.887969156901041856e+02,3.887909545898437500e+02,3.887845018174913321e+02,3.887776658799913321e+02
3.886038275824652715e+02,3.885749240451389142e+02,3.885389133029514142e+02,3.884920484754774179e+02,3.884396938747829608e+02,3.883846706814235858e+02,3.883293626573350821e+02,3.882778252495659785e+02,3.882339002821180429e+02,3.881985710991753535e+02,3.881703525119357892e+02,3.881459045410156250e+02,3.881224636501735858e+02,3.880983513726128535e+02,3.880724182128906250e+02,3.880442097981770644e+02,3.880137566460503535e+02,3.879814893934461679e+02,3.879480116102430429e+02,3.879138624403211679e+02,3.878795166015625000e+02,3.878454759385850821e+02,3.878121168348524179e+02,3.877797648111979356e+02,3.877485690646701642e+02,3.877186584472656250e+02,3.876901109483507071e+02,3.876627875434027715e+02,3.876366136338975821e+02,3.876115756564670392e+02,3.875879075792100821e+02,3.875659518771701642e+02,3.875460781521267108e+02,3.875284356011284785e+02,3.875128682454426894e+02,3.874987453884548358e+02,3.874852091471354356e+02,3.874713643391926894e+02,3.874567328559027715e+02,3.874414605034722285e+02,3.874264424641926894e+02,3.874130588107639142e+02,3.874028862847222285e+02,3.873971998426649179e+02,3.873972642686632071e+02,3.874038560655382071e+02,3.874172295464409785e+02,3.874363030327691035e+02,3.874598286946614394e+02,3.874870435926649179e+02,3.875170694986979356e+02,3.875491129557291856e+02,3.875820753309461679e+02,3.876157531738281250e+02,3.876500345865885606e+02,3.876848178439670392e+02,3.877199232313367929e+02,3.877553236219617929e+02,3.877910190158420392e+02,3.878271077473958144e+02,3.878636033799913321e+02,3.879005872938367929e+02,3.879380764431423358e+02,3.879760267469617929e+02,3.880143805609808965e+02,3.880530836317274179e+02,3.880920410156250000e+02,3.881310492621527715e+02,3.881699456108941035e+02,3.882086012098524179e+02,3.882469278971354356e+02,3.882848103841145644e+02,3.883220248752170392e+02,3.883583407931857892e+02,3.883934970431857892e+02,3.884272020128038321e+02,3.884592352973090215e+02,3.884892815483941035e+02,3.885171474880642108e+02,3.885425245496961679e+02,3.885653143988715215e+02,3.885855000813801894e+02,3.886034545898437500e+02,3.886198967827691035e+02,3.886355082194010606e+02,3.886507805718316035e+02,3.886658020019531250e+02,3.886805725097656250e+02,3.886949971516926894e+02,3.887089063856336679e+02,3.887222290039062500e+02,3.887349107530382071e+02,3.887469041612413321e+02,3.887581414116753535e+02,3.887685411241319571e+02,3.887780490451389142e+02,3.887866312662760606e+02,3.887942403157551894e+02,3.888009372287326642e+02,3.888066914876301894e+02,3.888115946451823106e+02,3.888157077365451642e+02,3.888191731770833144e+02,3.888219231499566035e+02,3.888239305284288321e+02,3.888251681857639142e+02,3.888258056640625000e+02,3.888258429633246465e+02,3.888252326117621465e+02,3.888239067925347285e+02,3.888219367133246465e+02,3.888192918565538321e+02,3.888159993489583144e+02,3.888120354546441035e+02,3.888074849446614394e+02,3.888023240831163321e+02,3.887966037326389142e+02,3.887904154459635606e+02,3.887838711208767108e+02
3.886327819824218750e+02,3.886094902886284785e+02,3.885806104871961679e+02,3.885423719618055429e+02,3.884987826877170392e+02,3.884515584309895644e+02,3.884012756347656250e+02,3.883541191948784785e+02,3.883147616916232892e+02,3.882832946777343750e+02,3.882574361165364394e+02,3.882334323459201642e+02,3.882092895507812500e+02,3.881837599012586679e+02,3.881560363769531250e+02,3.881258782280816035e+02,3.880934346516926894e+02,3.880591803656683965e+02,3.880237562391492929e+02,3.879877081976996465e+02,3.879515279134114394e+02,3.879156561957465215e+02,3.878804592556423358e+02,3.878462829589843750e+02,3.878132798936632071e+02,3.877816162109375000e+02,3.877513224283854356e+02,3.877222561306423358e+02,3.876943257649739394e+02,3.876674160427517108e+02,3.876416795518663321e+02,3.876173536512586679e+02,3.875949096679687500e+02,3.875746358235676894e+02,3.875566745334201642e+02,3.875406155056423358e+02,3.875257771809895644e+02,3.875112101236979356e+02,3.874961853027343750e+02,3.874804484049479356e+02,3.874644165039062500e+02,3.874491916232639142e+02,3.874361877441406250e+02,3.874267544216579608e+02,3.874219801161024179e+02,3.874229092068142108e+02,3.874301689995659785e+02,3.874437527126735858e+02,3.874628736707899179e+02,3.874867485894097285e+02,3.875143873426649179e+02,3.875447998046875000e+02,3.875769653320312500e+02,3.876103074815538321e+02,3.876445007324218750e+02,3.876793212890625000e+02,3.877144571940104356e+02,3.877499152289496465e+02,3.877856275770399179e+02,3.878217400444878535e+02,3.878582594129774179e+02,3.878952941894531250e+02,3.879328918457031250e+02,3.879710320366753535e+02,3.880096503363715215e+02,3.880486382378472285e+02,3.880878872341579608e+02,3.881271837022569571e+02,3.881663343641492929e+02,3.882052273220485858e+02,3.882437371148003535e+02,3.882817654079860858e+02,3.883190002441406250e+02,3.883552551269531250e+02,3.883902621799045392e+02,3.884238111707899179e+02,3.884556952582465215e+02,3.884856838650173358e+02,3.885136650933159785e+02,3.885394117567274179e+02,3.885627983940972285e+02,3.885837809244791856e+02,3.886025831434461679e+02,3.886197611490885606e+02,3.886358371310764142e+02,3.886512824164496465e+02,3.886662868923610858e+02,3.886809217664930429e+02,3.886952039930555429e+02,3.887090420193142108e+02,3.887223917643229356e+02,3.887351718478732892e+02,3.887472873263889142e+02,3.887587009006076642e+02,3.887693277994791856e+02,3.887791171603732892e+02,3.887879740397135606e+02,3.887958238389757071e+02,3.888027275933159785e+02,3.888087192111545392e+02,3.888138766818576642e+02,3.888182644314235858e+02,3.888219333224826642e+02,3.888248731825086679e+02,3.888270636664496465e+02,3.888285217285156250e+02,3.888294067382812500e+02,3.888296847873264142e+02,3.888293457031250000e+02,3.888282843695746465e+02,3.888265923394097285e+02,3.888242153591579608e+02,3.888212042914496465e+02,3.888175387912326642e+02,3.888132866753472285e+02,3.888084106445312500e+02,3.888029852973090215e+02,3.887971259223090215e+02,3.887909376356336679e+02
3.886723734537760606e+02,3.886466471354166856e+02,3.886185743543836679e+02,3.885882703993055429e+02,3.885538974338107892e+02,3.885153876410590215e+02,3.884694586859808965e+02,3.884272121853298358e+02,3.883929748535156250e+02,3.883655904134114394e+02,3.883414577907985858e+02,3.883173522949218750e+02,3.882920803493923358e+02,3.882649027506510606e+02,3.882353820800781250e+02,3.882034098307291856e+02,3.881692233615451642e+02,3.881332736545139142e+02,3.880962049696180429e+02,3.880585801866319571e+02,3.880208672417534785e+02,3.879834526909722285e+02,3.879467061360676894e+02,3.879109564887152715e+02,3.878764139811198106e+02,3.878432142469617929e+02,3.878113844129774179e+02,3.877807820638020644e+02,3.877512986924913321e+02,3.877227918836805429e+02,3.876953260633680429e+02,3.876690436469183965e+02,3.876443684895833144e+02,3.876216091579860858e+02,3.876011386447482892e+02,3.875828518337673358e+02,3.875663519965277715e+02,3.875507880316840215e+02,3.875353224012586679e+02,3.875193854437933965e+02,3.875029398600260606e+02,3.874866265190972285e+02,3.874715745713975821e+02,3.874590454101562500e+02,3.874502326117621465e+02,3.874460890028211679e+02,3.874476081000433965e+02,3.874552714029948106e+02,3.874693196614583144e+02,3.874892103407117929e+02,3.875140550401475821e+02,3.875425143771701642e+02,3.875734761555989394e+02,3.876061469184027715e+02,3.876400316026475821e+02,3.876747368706597285e+02,3.877098490397135606e+02,3.877452969021267108e+02,3.877810194227430429e+02,3.878171488444010606e+02,3.878537055121527715e+02,3.878907436794704608e+02,3.879283650716145644e+02,3.879665900336371465e+02,3.880053880479600821e+02,3.880445760091145644e+02,3.880840081108941035e+02,3.881234910753038321e+02,3.881628417968750000e+02,3.882019280327691035e+02,3.882405836317274179e+02,3.882786526150173358e+02,3.883158196343316035e+02,3.883519151475694571e+02,3.883867289225260606e+02,3.884200948079426894e+02,3.884518229166666856e+02,3.884817877875433965e+02,3.885099521213107892e+02,3.885361667209201642e+02,3.885602383083767108e+02,3.885820651584201642e+02,3.886017320421007071e+02,3.886196390787760606e+02,3.886361999511718750e+02,3.886518724229600821e+02,3.886669345431857892e+02,3.886815287272135606e+02,3.886957397460937500e+02,3.887095269097222285e+02,3.887228698730468750e+02,3.887356974283854356e+02,3.887479383680555429e+02,3.887595452202691035e+02,3.887704026963975821e+02,3.887804395887586679e+02,3.887895473904079608e+02,3.887976582845051894e+02,3.888048129611545392e+02,3.888110894097222285e+02,3.888165317111545392e+02,3.888212144639757071e+02,3.888251139322916856e+02,3.888282741970485858e+02,3.888306647406683965e+02,3.888323635525173358e+02,3.888335028754340215e+02,3.888340454101562500e+02,3.888339742024739394e+02,3.888332044813367929e+02,3.888317938910590215e+02,3.888297186957465215e+02,3.888270128038194571e+02,3.888236728244357892e+02,3.888197530110676894e+02,3.888152194552951642e+02,3.888101671006944571e+02,3.888046942816840215e+02,3.887989095052083144e+02
3.887220560709635606e+02,3.886901923285590215e+02,3.886588711208767108e+02,3.886321987575954608e+02,3.886034206814235858e+02,3.885708109537760606e+02,3.885309787326389142e+02,3.884953511555989394e+02,3.884673834906683965e+02,3.884434950086805429e+02,3.884203355577257071e+02,3.883955213758680429e+02,3.883688557942708144e+02,3.883401489257812500e+02,3.883091939290364394e+02,3.882758822970920392e+02,3.882404344346788321e+02,3.882032775878906250e+02,3.881650254991319571e+02,3.881262342664930429e+02,3.880873413085937500e+02,3.880487297905816035e+02,3.880107523600260606e+02,3.879737141927083144e+02,3.879378729926215215e+02,3.879033610026041856e+02,3.878701985677083144e+02,3.878382500542534785e+02,3.878074069552951642e+02,3.877775472005208144e+02,3.877486673990885606e+02,3.877208285861545392e+02,3.876942918565538321e+02,3.876693284776475821e+02,3.876463928222656250e+02,3.876257222493489394e+02,3.876072116427951642e+02,3.875902676052517108e+02,3.875740729437933965e+02,3.875579325358073106e+02,3.875414293077257071e+02,3.875247022840711679e+02,3.875084228515625000e+02,3.874936150444878535e+02,3.874814893934461679e+02,3.874731445312500000e+02,3.874695671929253535e+02,3.874716389973958144e+02,3.874800245496961679e+02,3.874952596028645644e+02,3.875165506998698106e+02,3.875426398383246465e+02,3.875719129774305429e+02,3.876035359700520644e+02,3.876368204752604356e+02,3.876711934407551894e+02,3.877061530219183965e+02,3.877415228949652715e+02,3.877772216796875000e+02,3.878133171929253535e+02,3.878498772515191035e+02,3.878869188096788321e+02,3.879245673285590215e+02,3.879628329806857892e+02,3.880017123752170392e+02,3.880410020616319571e+02,3.880805257161458144e+02,3.881201307508680429e+02,3.881596272786458144e+02,3.881988694932725821e+02,3.882376437717014142e+02,3.882757263183593750e+02,3.883127882215711679e+02,3.883486667209201642e+02,3.883832092285156250e+02,3.884163309733073106e+02,3.884478658040364394e+02,3.884778272840711679e+02,3.885062154134114394e+02,3.885329352484808965e+02,3.885577189127604356e+02,3.885803934733073106e+02,3.886009216308593750e+02,3.886195305718316035e+02,3.886365797254774179e+02,3.886525099012586679e+02,3.886676873101128535e+02,3.886823120117187500e+02,3.886965230305989394e+02,3.887103034125433965e+02,3.887236395941840215e+02,3.887364908854166856e+02,3.887488538953992929e+02,3.887606404622395644e+02,3.887717217339409785e+02,3.887819824218750000e+02,3.887913309733073106e+02,3.887997334798176894e+02,3.888071797688801894e+02,3.888137885199652715e+02,3.888195326063367929e+02,3.888244967990451642e+02,3.888286302354600821e+02,3.888320176866319571e+02,3.888346591525607892e+02,3.888366597493489394e+02,3.888380839029948106e+02,3.888389146592882071e+02,3.888391011555989394e+02,3.888386535644531250e+02,3.888375651041666856e+02,3.888358256022135606e+02,3.888334384494357892e+02,3.888304273817274179e+02,3.888268636067708144e+02,3.888227335611979356e+02,3.888181152343750000e+02,3.888130866156683965e+02,3.888077392578125000e+02
3.887798495822482892e+02,3.887418145073784785e+02,3.887061462402343750e+02,3.886773206922742929e+02,3.886482442220051894e+02,3.886170281304253535e+02,3.885843404134114394e+02,3.885562540690104356e+02,3.885353969997829608e+02,3.885134514702691035e+02,3.884907803005642108e+02,3.884649658203125000e+02,3.884372456868489394e+02,3.884077046712239394e+02,3.883761325412326642e+02,3.883423326280382071e+02,3.883063930935329608e+02,3.882687140570746465e+02,3.882298482259114394e+02,3.881903788248698106e+02,3.881507398817274179e+02,3.881113247341579608e+02,3.880724826388889142e+02,3.880344746907551894e+02,3.879975823296441035e+02,3.879619683159722285e+02,3.879276631673176894e+02,3.878945753309461679e+02,3.878625590006510606e+02,3.878315294053819571e+02,3.878014526367187500e+02,3.877723592122395644e+02,3.877443406846788321e+02,3.877175767686632071e+02,3.876924540201823106e+02,3.876694200303819571e+02,3.876486680772569571e+02,3.876299472384982892e+02,3.876126335991753535e+02,3.875960422092014142e+02,3.875795491536458144e+02,3.875628255208333144e+02,3.875460510253906250e+02,3.875298529730902715e+02,3.875153096516927462e+02,3.875035502115885606e+02,3.874957478841145644e+02,3.874928588867187500e+02,3.874958258734808965e+02,3.875058695475260606e+02,3.875227898491753535e+02,3.875456814236110858e+02,3.875726555718316035e+02,3.876027492947048358e+02,3.876350504557291856e+02,3.876688198513454608e+02,3.877034403483073106e+02,3.877386101616753535e+02,3.877742072211371465e+02,3.878102416992187500e+02,3.878467644585503535e+02,3.878838060167100821e+02,3.879214647081163321e+02,3.879597710503472285e+02,3.879986945258246465e+02,3.880380452473958144e+02,3.880776197645399179e+02,3.881172858344183965e+02,3.881568942599826642e+02,3.881962517632378535e+02,3.882350972493489394e+02,3.882731255425347285e+02,3.883100484212239394e+02,3.883456692165798358e+02,3.883798794216579608e+02,3.884126654730902715e+02,3.884439697265625000e+02,3.884739244249132071e+02,3.885025397406683965e+02,3.885297376844617929e+02,3.885552062988281250e+02,3.885787048339843750e+02,3.886000942654079608e+02,3.886194322374132071e+02,3.886369934082031250e+02,3.886532050238715215e+02,3.886685011121961679e+02,3.886832038031683965e+02,3.886974690755208144e+02,3.887112698025173358e+02,3.887246127658420392e+02,3.887375081380208144e+02,3.887500135633680429e+02,3.887619696723090215e+02,3.887732510036892108e+02,3.887837117513021212e+02,3.887932874891492929e+02,3.888019612630208144e+02,3.888097364637586679e+02,3.888166809082031250e+02,3.888227437337239394e+02,3.888279791937933965e+02,3.888323974609375000e+02,3.888360697428385606e+02,3.888390231662326642e+02,3.888413628472222285e+02,3.888431193033854356e+02,3.888443060980902715e+02,3.888448215060764142e+02,3.888447231716579608e+02,3.888439602322048358e+02,3.888425801595051894e+02,3.888405456542968750e+02,3.888378974066840215e+02,3.888347066243489394e+02,3.888310072157117929e+02,3.888268805609808965e+02,3.888223436143663321e+02,3.888174777560764142e+02
3.888443060980902715e+02,3.888012797037760606e+02,3.887613796657985858e+02,3.887259894476996465e+02,3.886918029785156250e+02,3.886578063964843750e+02,3.886290384928385606e+02,3.886046990288628535e+02,3.885885789659288321e+02,3.885686442057291856e+02,3.885480041503906250e+02,3.885220404730902715e+02,3.884947950575086679e+02,3.884659559461805429e+02,3.884351704915364394e+02,3.884021131727430429e+02,3.883667060004340215e+02,3.883293287489149179e+02,3.882905205620659785e+02,3.882508951822916856e+02,3.882109442816840215e+02,3.881711120605468750e+02,3.881317511664496465e+02,3.880931091308593750e+02,3.880554334852430429e+02,3.880189446343316035e+02,3.879836697048610858e+02,3.879495883517795392e+02,3.879165513780382071e+02,3.878845147026909785e+02,3.878534138997395644e+02,3.878232828776041856e+02,3.877940979003906250e+02,3.877659674750433965e+02,3.877390950520833144e+02,3.877139553493923358e+02,3.876909518771701642e+02,3.876701694064670392e+02,3.876513298882378535e+02,3.876339009602864394e+02,3.876172044542100821e+02,3.876006062825520644e+02,3.875837944878472285e+02,3.875669962565104356e+02,3.875509236653645644e+02,3.875366380479600821e+02,3.875253634982639142e+02,3.875183241102430429e+02,3.875164150661892108e+02,3.875211520724826642e+02,3.875329861111110858e+02,3.875517951117621465e+02,3.875758938259548358e+02,3.876040072970920392e+02,3.876349555121527715e+02,3.876678263346354356e+02,3.877018873426649179e+02,3.877367146809895644e+02,3.877721320258246465e+02,3.878080579969617929e+02,3.878444858127170392e+02,3.878814968532985858e+02,3.879191589355468750e+02,3.879575093587239394e+02,3.879964260525173358e+02,3.880357598198784785e+02,3.880753411187066035e+02,3.881150512695312500e+02,3.881547444661458144e+02,3.881941731770833144e+02,3.882330322265625000e+02,3.882709859212239394e+02,3.883077290852864394e+02,3.883430616590711679e+02,3.883768751356336679e+02,3.884092576768663321e+02,3.884402940538194571e+02,3.884702216254340215e+02,3.884990573459201642e+02,3.885266927083333144e+02,3.885527954101562500e+02,3.885770738389757071e+02,3.885992906358507071e+02,3.886193372938367929e+02,3.886374003092448106e+02,3.886539103190104356e+02,3.886693623860676894e+02,3.886841668023003535e+02,3.886984931098090215e+02,3.887123514811198106e+02,3.887257588704426894e+02,3.887387593587239394e+02,3.887513936360676894e+02,3.887635023328992929e+02,3.887749565972222854e+02,3.887856343587239394e+02,3.887954644097222285e+02,3.888044331868489394e+02,3.888125440809461679e+02,3.888198310004340215e+02,3.888262261284722285e+02,3.888317532009548358e+02,3.888364664713541856e+02,3.888404439290364394e+02,3.888437466091579608e+02,3.888464626736110858e+02,3.888486090766058965e+02,3.888501993815104356e+02,3.888510945638020644e+02,3.888513590494791856e+02,3.888509555392795392e+02,3.888499620225694571e+02,3.888483242458767108e+02,3.888460930718316035e+02,3.888433329264323106e+02,3.888401150173610858e+02,3.888364969889323106e+02,3.888324788411458144e+02,3.888281148274739394e+02
3.889132656521267108e+02,3.888655429416232892e+02,3.888205600314670392e+02,3.887785339355468750e+02,3.887382202148437500e+02,3.886999003092448106e+02,3.886689147949218750e+02,3.886422797309027715e+02,3.886237080891926894e+02,3.886034444173176894e+02,3.885854458279079608e+02,3.885634596082899179e+02,3.885400526258680429e+02,3.885141059027777715e+02,3.884858194986979356e+02,3.884549424913194571e+02,3.884211697048610858e+02,3.883849351671007071e+02,3.883468424479166856e+02,3.883075798882378535e+02,3.882677680121527715e+02,3.882278917100694571e+02,3.881883714463975821e+02,3.881494072808159785e+02,3.881112263997395644e+02,3.880740661621093750e+02,3.880379977756076642e+02,3.880030958387586679e+02,3.879692382812500000e+02,3.879363708496093750e+02,3.879043816460503535e+02,3.878733452690972285e+02,3.878432481553819571e+02,3.878141174316406250e+02,3.877859666612413321e+02,3.877591179741753535e+02,3.877340698242187500e+02,3.877111545138889142e+02,3.876904839409722285e+02,3.876717800564235858e+02,3.876544630262586679e+02,3.876377733018663321e+02,3.876210937500000000e+02,3.876042378743489394e+02,3.875874803331163321e+02,3.875715772840711679e+02,3.875576883951823106e+02,3.875471767849392108e+02,3.875411512586805429e+02,3.875409071180555429e+02,3.875473598904079608e+02,3.875613165961371465e+02,3.875818108452691035e+02,3.876075168185764142e+02,3.876367017957899179e+02,3.876683519151475821e+02,3.877016262478298358e+02,3.877359551323784785e+02,3.877710706922742929e+02,3.878068067762586679e+02,3.878430820041232892e+02,3.878800184461805429e+02,3.879176534016926894e+02,3.879560038248698106e+02,3.879948933919270644e+02,3.880341695149739394e+02,3.880737270779079608e+02,3.881134338378906250e+02,3.881531609429253535e+02,3.881926133897569571e+02,3.882314520941840215e+02,3.882693176269531818e+02,3.883058539496527715e+02,3.883408542209201642e+02,3.883742336697048358e+02,3.884061720106336679e+02,3.884369167751735858e+02,3.884667833116319571e+02,3.884958055284288321e+02,3.885238444010416856e+02,3.885505337185329608e+02,3.885755377875433965e+02,3.885985209147135606e+02,3.886192559136284785e+02,3.886378377278645644e+02,3.886546732584635606e+02,3.886703084309895644e+02,3.886852247450086679e+02,3.886996256510416856e+02,3.887135789659288321e+02,3.887270948621961679e+02,3.887402343750000000e+02,3.887529941134982892e+02,3.887652587890625000e+02,3.887768758138020644e+02,3.887877739800347285e+02,3.887978583441840215e+02,3.888071390787760606e+02,3.888155958387586679e+02,3.888232184516058965e+02,3.888299594455295392e+02,3.888358154296875000e+02,3.888408813476562500e+02,3.888452148437500000e+02,3.888489074707031250e+02,3.888519999186198106e+02,3.888545294867621465e+02,3.888565165201823106e+02,3.888578491210937500e+02,3.888585306803385606e+02,3.888585238986545392e+02,3.888579338921441035e+02,3.888567538791232892e+02,3.888550313313801894e+02,3.888528001573350821e+02,3.888501180013020644e+02,3.888470221625433965e+02,3.888435295952691035e+02,3.888396911621093750e+02
3.889853786892360858e+02,3.889331529405382071e+02,3.888830837673610858e+02,3.888352016872829608e+02,3.887893303765191035e+02,3.887462158203125000e+02,3.887082214355468750e+02,3.886745775010850821e+02,3.886484476725260606e+02,3.886256849500867929e+02,3.886095513237847285e+02,3.885924241807725821e+02,3.885745815700954608e+02,3.885527140299479356e+02,3.885283508300781250e+02,3.885009460449218750e+02,3.884697536892360858e+02,3.884353976779514142e+02,3.883986952039930429e+02,3.883603854709201642e+02,3.883211737738715215e+02,3.882816331651475821e+02,3.882422247992621465e+02,3.882032199435764142e+02,3.881648050944010606e+02,3.881272006564670392e+02,3.880905117458767108e+02,3.880548909505208144e+02,3.880203314887152715e+02,3.879867757161458144e+02,3.879540913899739394e+02,3.879223327636718750e+02,3.878915235731336679e+02,3.878616468641492929e+02,3.878326009114583144e+02,3.878045247395833144e+02,3.877778252495659785e+02,3.877529364691840215e+02,3.877302822536892108e+02,3.877099236382378535e+02,3.876915351019965215e+02,3.876744113498264142e+02,3.876577724880642108e+02,3.876411132812500000e+02,3.876242472330729356e+02,3.876075541178385606e+02,3.875919053819444571e+02,3.875786437988281250e+02,3.875690443250867929e+02,3.875643581814235858e+02,3.875657246907551894e+02,3.875746392144097285e+02,3.875909050835503535e+02,3.876135118272569571e+02,3.876404283311632071e+02,3.876704745822482892e+02,3.877026909722222285e+02,3.877363688151041856e+02,3.877710842556423358e+02,3.878065422905816035e+02,3.878426344129774179e+02,3.878794318305121465e+02,3.879170091417100821e+02,3.879552883572048358e+02,3.879940965440538321e+02,3.880332777235242929e+02,3.880727708604600821e+02,3.881124538845485858e+02,3.881521470811632071e+02,3.881915622287326642e+02,3.882303670247395644e+02,3.882681579589843750e+02,3.883044874403211679e+02,3.883391350640191035e+02,3.883720703125000000e+02,3.884035610622829608e+02,3.884339836968316035e+02,3.884637145996093750e+02,3.884928622775607892e+02,3.885212504069010606e+02,3.885484890407985858e+02,3.885741746690538321e+02,3.885978495279948106e+02,3.886192118326823106e+02,3.886383022732204608e+02,3.886555040147569571e+02,3.886713799370659785e+02,3.886864149305555429e+02,3.887008768717448106e+02,3.887149285210503535e+02,3.887285732693142108e+02,3.887418653700086679e+02,3.887547471788194571e+02,3.887671644422742929e+02,3.887789781358507071e+02,3.887901306152343750e+02,3.888005167643229356e+02,3.888101298014323106e+02,3.888189120822482892e+02,3.888268466525607892e+02,3.888339165581597285e+02,3.888401455349392108e+02,3.888456013997395644e+02,3.888503316243489394e+02,3.888544379340277715e+02,3.888579338921441035e+02,3.888608737521701642e+02,3.888632337782117929e+02,3.888649800618489394e+02,3.888661024305555429e+02,3.888665805392795392e+02,3.888664822048610858e+02,3.888658243815104356e+02,3.888646647135416856e+02,3.888630337185329608e+02,3.888609381781683965e+02,3.888583950466579608e+02,3.888554246690538321e+02,3.888521152072482892e+02
3.890598144531250000e+02,3.890034111870659785e+02,3.889486490885416856e+02,3.888955824110242929e+02,3.888445197211371465e+02,3.887961222330729356e+02,3.887515869140625000e+02,3.887111307779948106e+02,3.886761915418836679e+02,3.886479390462239394e+02,3.886293979220920392e+02,3.886145494249132071e+02,3.886001586914062500e+02,3.885827297634548358e+02,3.885632256401909785e+02,3.885403713650173358e+02,3.885123596191406250e+02,3.884805501302083144e+02,3.884458550347222285e+02,3.884090610080295392e+02,3.883709174262152715e+02,3.883320617675781250e+02,3.882930399576823106e+02,3.882542283799913321e+02,3.882158304850260606e+02,3.881780327690972285e+02,3.881409437391492929e+02,3.881047668457031250e+02,3.880696275499132071e+02,3.880355088975694571e+02,3.880022956000433965e+02,3.879700012207031250e+02,3.879386359320746465e+02,3.879081963433159785e+02,3.878785434299045392e+02,3.878496805826823106e+02,3.878218180338541856e+02,3.877953457302517108e+02,3.877708062065972285e+02,3.877485826280382071e+02,3.877286851671007071e+02,3.877106696234808965e+02,3.876937798394097285e+02,3.876772833930121465e+02,3.876606343587239394e+02,3.876437377929687500e+02,3.876271057128906250e+02,3.876118672688801894e+02,3.875993821885850821e+02,3.875910373263889142e+02,3.875879618326823106e+02,3.875918613009982892e+02,3.876033325195312500e+02,3.876220465766058965e+02,3.876462402343750000e+02,3.876743503146701642e+02,3.877052408854166856e+02,3.877380438910590215e+02,3.877721964518229356e+02,3.878072747124566035e+02,3.878431193033854356e+02,3.878797268337673358e+02,3.879171719021267108e+02,3.879552985297308965e+02,3.879939846462673358e+02,3.880330674913194571e+02,3.880724792480468750e+02,3.881120910644531250e+02,3.881516994900173358e+02,3.881910536024305429e+02,3.882297905815972285e+02,3.882674730088975821e+02,3.883036058213975821e+02,3.883379211425781250e+02,3.883704393174913321e+02,3.884014824761284785e+02,3.884315592447916856e+02,3.884610934787326642e+02,3.884902886284722285e+02,3.885189649793836679e+02,3.885466986762152715e+02,3.885729777018229356e+02,3.885972561306423358e+02,3.886192050509982892e+02,3.886388075086805429e+02,3.886563890245225821e+02,3.886725090874566035e+02,3.886876864963107892e+02,3.887022501627604356e+02,3.887164001464843750e+02,3.887301635742187500e+02,3.887436082628038321e+02,3.887566460503472285e+02,3.887692565917968750e+02,3.887812839084201642e+02,3.887927042643229356e+02,3.888033854166666856e+02,3.888133273654514142e+02,3.888224249945746465e+02,3.888306681315104356e+02,3.888380805121527715e+02,3.888446994357639142e+02,3.888505961100260606e+02,3.888557739257812500e+02,3.888603176540798358e+02,3.888642239040798358e+02,3.888675537109375000e+02,3.888702969021267108e+02,3.888725009494357892e+02,3.888741319444444571e+02,3.888751661512586679e+02,3.888756171332465215e+02,3.888755391438801894e+02,3.888749796549479356e+02,3.888739624023437500e+02,3.888724704318576642e+02,3.888705274793836679e+02,3.888681301540798358e+02,3.888653971354166856e+02
3.891362508138020644e+02,3.890760803222656250e+02,3.890170898437500000e+02,3.889594251844617929e+02,3.889036458333333144e+02,3.888503655327691035e+02,3.888004760742187500e+02,3.887546115451389142e+02,3.887139689127604356e+02,3.886802062988281250e+02,3.886561279296875000e+02,3.886372172037760606e+02,3.886211378309461679e+02,3.886062791612413321e+02,3.885908983018663321e+02,3.885730183919270644e+02,3.885484449598524179e+02,3.885199483235676894e+02,3.884879353841145644e+02,3.884532267252604356e+02,3.884166056315104356e+02,3.883787841796875000e+02,3.883404541015625000e+02,3.883021070692274179e+02,3.882640109592014142e+02,3.882262844509548358e+02,3.881890360514323106e+02,3.881524793836805429e+02,3.881168619791666856e+02,3.880822652180989394e+02,3.880486585828992929e+02,3.880159844292534785e+02,3.879842224121093750e+02,3.879533759223090215e+02,3.879233567979600821e+02,3.878940768771701642e+02,3.878655531141492929e+02,3.878380059136284785e+02,3.878119303385416856e+02,3.877878757052951642e+02,3.877662251790364394e+02,3.877468872070312500e+02,3.877293260362413321e+02,3.877127143012152715e+02,3.876963060167100821e+02,3.876795722113715215e+02,3.876626146104600821e+02,3.876461859809027715e+02,3.876315714518229356e+02,3.876202494303385606e+02,3.876135118272569571e+02,3.876128234863281250e+02,3.876192559136284785e+02,3.876333957248264142e+02,3.876541883680555429e+02,3.876800740559895644e+02,3.877093404134114394e+02,3.877410617404514142e+02,3.877744886610242929e+02,3.878090922037760606e+02,3.878446011013454608e+02,3.878809407552083144e+02,3.879181654188367929e+02,3.879560852050781250e+02,3.879945814344617929e+02,3.880335015190972285e+02,3.880727572970920392e+02,3.881122436523437500e+02,3.881517096625433965e+02,3.881909654405382071e+02,3.882296142578125000e+02,3.882671881781683965e+02,3.883031378851996465e+02,3.883371548122829608e+02,3.883692966037326642e+02,3.883999294704860858e+02,3.884296569824218750e+02,3.884589572482639142e+02,3.884881117078992929e+02,3.885169576009114394e+02,3.885450676812066035e+02,3.885718553331163321e+02,3.885966932508680429e+02,3.886192016601562500e+02,3.886392890082465215e+02,3.886572536892360858e+02,3.886736382378472285e+02,3.886890123155382071e+02,3.887037048339843750e+02,3.887179565429687500e+02,3.887318284776475821e+02,3.887454325358073106e+02,3.887586636013454608e+02,3.887714775933159785e+02,3.887837524414062500e+02,3.887954372829860858e+02,3.888064168294270644e+02,3.888166469997829608e+02,3.888260667588975821e+02,3.888346455891926894e+02,3.888424411349826642e+02,3.888494737413194571e+02,3.888558281792534785e+02,3.888614569769965215e+02,3.888664449055989394e+02,3.888707885742187500e+02,3.888745761447482892e+02,3.888777737087673358e+02,3.888804592556423358e+02,3.888826260036892108e+02,3.888842400444878535e+02,3.888853081597222285e+02,3.888858439127604356e+02,3.888859219021267108e+02,3.888855387369791856e+02,3.888846774631076642e+02,3.888833652072482892e+02,3.888815917968750000e+02,3.888794928656683965e+02
3.892145148383246465e+02,3.891510213216145644e+02,3.890883110894097285e+02,3.890266316731770644e+02,3.889666883680555429e+02,3.889091695149739394e+02,3.888549024793836679e+02,3.888046807183159785e+02,3.887595655653211679e+02,3.887208658854166856e+02,3.886895243326823106e+02,3.886633877224392108e+02,3.886412862141926894e+02,3.886242574055989394e+02,3.886097378200954608e+02,3.885958285861545392e+02,3.885765279134114394e+02,3.885529785156250000e+02,3.885244581434461679e+02,3.884924248589409785e+02,3.884577399359808965e+02,3.884213222927517108e+02,3.883840060763889142e+02,3.883464016384548358e+02,3.883088616265191035e+02,3.882714945475260606e+02,3.882343953450520644e+02,3.881977369520399179e+02,3.881618414984808965e+02,3.881268988715277715e+02,3.880929802788628535e+02,3.880600212944878535e+02,3.880280083550347285e+02,3.879969177246093750e+02,3.879667290581597285e+02,3.879372762044270644e+02,3.879085015190972285e+02,3.878803812662760606e+02,3.878532647026909785e+02,3.878276807996961679e+02,3.878042738172742929e+02,3.877833184136284785e+02,3.877646009657117929e+02,3.877474602593316035e+02,3.877310824924045392e+02,3.877146402994791856e+02,3.876977810329860858e+02,3.876808336046007071e+02,3.876648322211371465e+02,3.876512112087673358e+02,3.876414048936632071e+02,3.876367390950520644e+02,3.876384853786892108e+02,3.876479017469617929e+02,3.876647847493489394e+02,3.876878865559895644e+02,3.877152099609375000e+02,3.877455647786458144e+02,3.877780693901909785e+02,3.878120490180121465e+02,3.878471272786458144e+02,3.878831380208333144e+02,3.879200676812066035e+02,3.879577195909288321e+02,3.879959581163194002e+02,3.880346374511718750e+02,3.880736423068576642e+02,3.881128845214843750e+02,3.881521538628472285e+02,3.881912841796875000e+02,3.882298177083333144e+02,3.882672356499566035e+02,3.883029785156250000e+02,3.883367140028211679e+02,3.883685201009114394e+02,3.883988003200954608e+02,3.884282090928819571e+02,3.884573025173610858e+02,3.884863722059461679e+02,3.885153266059027715e+02,3.885436977810329608e+02,3.885708787706163321e+02,3.885961914062500000e+02,3.886191813151041856e+02,3.886396857367621465e+02,3.886579962836371465e+02,3.886746419270833144e+02,3.886902398003472285e+02,3.887051052517360858e+02,3.887195061577691035e+02,3.887335306803385606e+02,3.887473110622829608e+02,3.887607523600260606e+02,3.887737901475694571e+02,3.887863125271267108e+02,3.887982652452257071e+02,3.888095296223958144e+02,3.888200581868489394e+02,3.888298136393229356e+02,3.888387756347656250e+02,3.888469984266492929e+02,3.888544752332899179e+02,3.888613145616319571e+02,3.888674418131510606e+02,3.888729180230034785e+02,3.888777194552951642e+02,3.888819580078125000e+02,3.888856540256076642e+02,3.888888685438367929e+02,3.888915879991319571e+02,3.888938056098090215e+02,3.888955078125000000e+02,3.888967013888889142e+02,3.888974236382378535e+02,3.888976813422308965e+02,3.888974745008680429e+02,3.888968200683593750e+02,3.888957451714409785e+02,3.888943345811632071e+02
3.892945624457465215e+02,3.892281561957465215e+02,3.891622009277343750e+02,3.890970526801215215e+02,3.890334879557291856e+02,3.889722968207465215e+02,3.889142761230468750e+02,3.888602328830295392e+02,3.888109368218316035e+02,3.887671474880642108e+02,3.887289428710937500e+02,3.886953226725260606e+02,3.886659206814235858e+02,3.886428460015191035e+02,3.886249491373698106e+02,3.886124098036024179e+02,3.885976460774739394e+02,3.885796813964843750e+02,3.885550503200954608e+02,3.885262790256076642e+02,3.884938897026909785e+02,3.884591742621527715e+02,3.884232143825954608e+02,3.883867187500000000e+02,3.883500603569878535e+02,3.883133748372395644e+02,3.882767706976996465e+02,3.882403530544704608e+02,3.882044372558593750e+02,3.881692877875433965e+02,3.881351284450954608e+02,3.881019795735676894e+02,3.880698649088541856e+02,3.880387234157985858e+02,3.880085347493489394e+02,3.879791124131944571e+02,3.879503479003906250e+02,3.879220547146267108e+02,3.878943820529514142e+02,3.878677334255642108e+02,3.878428209092882071e+02,3.878201870388454608e+02,3.877999877929687500e+02,3.877818773057725821e+02,3.877651604546441035e+02,3.877489013671875000e+02,3.877323744032117929e+02,3.877154337565104356e+02,3.876986965603298358e+02,3.876834377712673358e+02,3.876710984971788321e+02,3.876631537543402715e+02,3.876607767740885606e+02,3.876655341254340215e+02,3.876780836317274179e+02,3.876978047688801894e+02,3.877228969997829608e+02,3.877516140407985858e+02,3.877829589843750000e+02,3.878161315917968750e+02,3.878506605360242929e+02,3.878862711588541856e+02,3.879228481716579608e+02,3.879601813422308965e+02,3.879981146918402715e+02,3.880364651150173358e+02,3.880751274956597285e+02,3.881140441894531250e+02,3.881530592176649179e+02,3.881919962565104356e+02,3.882303636338975821e+02,3.882675781250000000e+02,3.883030870225694571e+02,3.883365275065104356e+02,3.883680352105034785e+02,3.883980000813801894e+02,3.884271308051215215e+02,3.884560241699218750e+02,3.884850023057725821e+02,3.885140075683593750e+02,3.885425652398003535e+02,3.885700615776909785e+02,3.885957709418402715e+02,3.886191474066840215e+02,3.886399976942274179e+02,3.886586269802517108e+02,3.886755676269531250e+02,3.886914333767360858e+02,3.887064921061198106e+02,3.887210591634114394e+02,3.887352362738715215e+02,3.887491929796007071e+02,3.887628546820746465e+02,3.887761264377170392e+02,3.887889133029514142e+02,3.888011508517795392e+02,3.888127339680989394e+02,3.888235982259114394e+02,3.888337063259548358e+02,3.888430820041232892e+02,3.888517659505208144e+02,3.888597581651475821e+02,3.888671061197916856e+02,3.888737589518229356e+02,3.888797471788194571e+02,3.888850538465711679e+02,3.888897942437066035e+02,3.888940124511718750e+02,3.888977457682291856e+02,3.889010077582465215e+02,3.889038187662760606e+02,3.889061754014757071e+02,3.889080641004774179e+02,3.889094679090711679e+02,3.889104105631510606e+02,3.889108852810329608e+02,3.889109157986110858e+02,3.889105428059895644e+02,3.889098307291666856e+02
3.893763326009114394e+02,3.893074103461371465e+02,3.892387051052517108e+02,3.891706000434027715e+02,3.891039123535156250e+02,3.890394660101996465e+02,3.889780883789062500e+02,3.889205152723524179e+02,3.888672417534722285e+02,3.888185628255208144e+02,3.887742513020833144e+02,3.887338256835937500e+02,3.886973097059461679e+02,3.886659613715277715e+02,3.886413642035590215e+02,3.886249423556857892e+02,3.886116604275173358e+02,3.885982462565104356e+02,3.885789116753472285e+02,3.885544704861110858e+02,3.885246751573350821e+02,3.884919365776909785e+02,3.884577263726128535e+02,3.884227871365017108e+02,3.883874240451389142e+02,3.883517930772569571e+02,3.883160061306423358e+02,3.882801581488715215e+02,3.882444966634114394e+02,3.882093539767795392e+02,3.881750861273871465e+02,3.881418728298610858e+02,3.881097751193576642e+02,3.880787421332465215e+02,3.880486857096354356e+02,3.880194261338975821e+02,3.879908074273003535e+02,3.879626227484808965e+02,3.879348280164930429e+02,3.879076504177517108e+02,3.878816697862413321e+02,3.878575642903645644e+02,3.878357713487413321e+02,3.878163825141058965e+02,3.877989230685764142e+02,3.877825520833333144e+02,3.877662760416666856e+02,3.877495897081163321e+02,3.877326219346788321e+02,3.877163391113281250e+02,3.877020840115017108e+02,3.876914198133680429e+02,3.876856825086805429e+02,3.876861707899305429e+02,3.876943461100260606e+02,3.877101270887586679e+02,3.877324998643663321e+02,3.877592739529079608e+02,3.877892049153645644e+02,3.878213670518663321e+02,3.878552076551649179e+02,3.878903435601128535e+02,3.879265238444010606e+02,3.879634806315104356e+02,3.880010375976562500e+02,3.880390014648437500e+02,3.880772772894965215e+02,3.881158074273003535e+02,3.881545206705729356e+02,3.881931898328992929e+02,3.882312995062933965e+02,3.882682223849826642e+02,3.883034566243489394e+02,3.883366258409288321e+02,3.883678521050347285e+02,3.883975389268663321e+02,3.884264255099826642e+02,3.884551561143663321e+02,3.884840460883246465e+02,3.885130750868055429e+02,3.885417582194010606e+02,3.885694715711805429e+02,3.885954657660590215e+02,3.886191270616319571e+02,3.886402553982204608e+02,3.886591729058159785e+02,3.886763983832465215e+02,3.886925116644965215e+02,3.887077738444010606e+02,3.887225240071614394e+02,3.887368977864583144e+02,3.887510613335503535e+02,3.887649570041232892e+02,3.887784966362847285e+02,3.887915649414062500e+02,3.888041212293836679e+02,3.888160502115885606e+02,3.888272908528645644e+02,3.888377956814235858e+02,3.888476291232639142e+02,3.888567911783854356e+02,3.888653123643663321e+02,3.888731791178385606e+02,3.888803880479600821e+02,3.888869120279948106e+02,3.888927510579426894e+02,3.888980034722222285e+02,3.889027574327257071e+02,3.889070468478732892e+02,3.889108954535590215e+02,3.889143337673610858e+02,3.889173482259114394e+02,3.889199388292100821e+02,3.889220377604166856e+02,3.889236924913194571e+02,3.889248758951823106e+02,3.889256354437933965e+02,3.889259982638889142e+02,3.889260219997829608e+02
3.894597608778211679e+02,3.893886922200520644e+02,3.893176337348090215e+02,3.892469821506076642e+02,3.891775614420573106e+02,3.891102125379774179e+02,3.890457831488715215e+02,3.889849277072482892e+02,3.889279276529948106e+02,3.888747456868489394e+02,3.888250935872395644e+02,3.887787339952257071e+02,3.887359313964843750e+02,3.886977267795139142e+02,3.886657714843750000e+02,3.886422966851128535e+02,3.886249830457899179e+02,3.886128234863281250e+02,3.885974256727430429e+02,3.885772128634982892e+02,3.885497097439235858e+02,3.885192430284288321e+02,3.884873352050781250e+02,3.884545457628038321e+02,3.884210001627604356e+02,3.883868204752604356e+02,3.883521491156683965e+02,3.883171556260850821e+02,3.882820536295573106e+02,3.882471856011284785e+02,3.882129923502604356e+02,3.881798231336805429e+02,3.881478237575954608e+02,3.881169942220051894e+02,3.880871853298610858e+02,3.880582173665364394e+02,3.880298868815104356e+02,3.880020005967882071e+02,3.879743889702691035e+02,3.879471130371093750e+02,3.879205457899305429e+02,3.878953213161892108e+02,3.878720601399739394e+02,3.878512166341145644e+02,3.878326687282985858e+02,3.878157891167534785e+02,3.877995435926649179e+02,3.877831624348958144e+02,3.877663370768229356e+02,3.877495863172742929e+02,3.877340393066406250e+02,3.877211880154079608e+02,3.877125447591145644e+02,3.877092488606770644e+02,3.877130703396267108e+02,3.877247619628906250e+02,3.877439270019531250e+02,3.877685445149739394e+02,3.877968241373698106e+02,3.878278028700086679e+02,3.878607821994357892e+02,3.878953111436632071e+02,3.879309861924913321e+02,3.879675123426649179e+02,3.880046522352430429e+02,3.880422024197048358e+02,3.880800645616319571e+02,3.881181810167100821e+02,3.881565043131510606e+02,3.881947869194878535e+02,3.882325371636284785e+02,3.882691277398003535e+02,3.883040771484375000e+02,3.883369818793402715e+02,3.883679436577691035e+02,3.883973795572916856e+02,3.884260389539930429e+02,3.884545898437500000e+02,3.884833814832899179e+02,3.885123867458767108e+02,3.885411512586805429e+02,3.885690104166666856e+02,3.885952216254340215e+02,3.886191372341579608e+02,3.886405334472656250e+02,3.886597018771701642e+02,3.886771647135416856e+02,3.886934780544704608e+02,3.887089674207899179e+02,3.887239244249132071e+02,3.887385321723090215e+02,3.887529127332899179e+02,3.887670627170139142e+02,3.887808973524305429e+02,3.887942911783854356e+02,3.888071967230902715e+02,3.888194986979166856e+02,3.888311326768663321e+02,3.888420613606770644e+02,3.888523559570312500e+02,3.888620266384548358e+02,3.888710903591579608e+02,3.888794793023003535e+02,3.888872273763020644e+02,3.888942905002170392e+02,3.889006991916232892e+02,3.889065212673610858e+02,3.889118516710069571e+02,3.889167412651909785e+02,3.889212171766492929e+02,3.889253031412760606e+02,3.889290059407551894e+02,3.889323221842448106e+02,3.889351637098524179e+02,3.889375440809461679e+02,3.889394531250000000e+02,3.889409620496961679e+02,3.889420810275607892e+02,3.889428710937500000e+02
3.895448269314235858e+02,3.894719238281250000e+02,3.893988410101996465e+02,3.893259582519531250e+02,3.892540961371527715e+02,3.891841193305121465e+02,3.891168924967448106e+02,3.890529819064670392e+02,3.889925130208333144e+02,3.889352315266926894e+02,3.888808627658420392e+02,3.888292982313367929e+02,3.887809210883246465e+02,3.887366197374132071e+02,3.886977403428819571e+02,3.886657579210069571e+02,3.886414048936632071e+02,3.886251559787326642e+02,3.886103854709201642e+02,3.885927530924479356e+02,3.885686442057291856e+02,3.885414360894097285e+02,3.885125528971354356e+02,3.884824523925781250e+02,3.884511956108941035e+02,3.884188401963975821e+02,3.883855489095051894e+02,3.883515930175781250e+02,3.883172573513454608e+02,3.882829216851128535e+02,3.882490370008680429e+02,3.882160407172308965e+02,3.881842074924045392e+02,3.881536085340711679e+02,3.881241217719183965e+02,3.880955268012152715e+02,3.880675828721788321e+02,3.880401000976562500e+02,3.880128614637586679e+02,3.879857991536458144e+02,3.879590657552083144e+02,3.879331563313801894e+02,3.879087490505642108e+02,3.878865186903211679e+02,3.878666890462239394e+02,3.878489379882812500e+02,3.878323974609375000e+02,3.878162061903211679e+02,3.877996860080295392e+02,3.877828877766926894e+02,3.877665879991319571e+02,3.877521057128906250e+02,3.877410244411892108e+02,3.877345852322048358e+02,3.877343648274739394e+02,3.877419806586371465e+02,3.877574666341145644e+02,3.877795681423610858e+02,3.878059590657551894e+02,3.878355475531683965e+02,3.878674553765191035e+02,3.879011908637152715e+02,3.879362318250867929e+02,3.879722425672742929e+02,3.880088941786024179e+02,3.880460103352864394e+02,3.880834214952257071e+02,3.881210869683159785e+02,3.881589321560329608e+02,3.881967434353298358e+02,3.882340562608507071e+02,3.882702636718750000e+02,3.883048977322048358e+02,3.883375311957465215e+02,3.883682454427083144e+02,3.883974439832899179e+02,3.884258931477864394e+02,3.884542643229166856e+02,3.884829474555121465e+02,3.885119052463107892e+02,3.885407036675347285e+02,3.885686475965711679e+02,3.885950147840711679e+02,3.886191474066840215e+02,3.886407979329426894e+02,3.886601799858941035e+02,3.886778259277343750e+02,3.886942986382378535e+02,3.887100118001301894e+02,3.887252163357204608e+02,3.887401156955295392e+02,3.887547743055555429e+02,3.887692057291666856e+02,3.887833489312066035e+02,3.887970852322048358e+02,3.888103535970051894e+02,3.888230251736110858e+02,3.888350660536024179e+02,3.888464694552951642e+02,3.888572523328992929e+02,3.888674180772569571e+02,3.888769734700520644e+02,3.888858913845485858e+02,3.888941853841145644e+02,3.889018113878038321e+02,3.889088236490885606e+02,3.889152899848090215e+02,3.889212782118055429e+02,3.889268324110242929e+02,3.889319763183594318e+02,3.889367506239149179e+02,3.889411587185329608e+02,3.889451938205295392e+02,3.889487745496961679e+02,3.889519144694010606e+02,3.889546067979600821e+02,3.889569057888454608e+02,3.889588216145833144e+02,3.889604119194878535e+02
3.896314561631944571e+02,3.895569661458333144e+02,3.894820997450086679e+02,3.894072502983941035e+02,3.893331875271267108e+02,3.892607828776041856e+02,3.891909010145399179e+02,3.891240675184461679e+02,3.890603196885850821e+02,3.889993116590711679e+02,3.889407721625433965e+02,3.888846333821614394e+02,3.888312920464409785e+02,3.887815823025173358e+02,3.887366773817274179e+02,3.886979404025607892e+02,3.886664326985676894e+02,3.886434834798176894e+02,3.886247558593750000e+02,3.886064826117621465e+02,3.885845981174045392e+02,3.885604587131076642e+02,3.885346713595920392e+02,3.885074428982204608e+02,3.884787089029948106e+02,3.884484422471788321e+02,3.884167683919270644e+02,3.883839959038628535e+02,3.883505350748698106e+02,3.883168674045139142e+02,3.882834540473090215e+02,3.882507527669270644e+02,3.882191365559895644e+02,3.881887783474392108e+02,3.881596577962239394e+02,3.881315104166666856e+02,3.881040581597222285e+02,3.880770467122395644e+02,3.880502522786458144e+02,3.880235629611545392e+02,3.879969651963975821e+02,3.879707675509982892e+02,3.879455702039930429e+02,3.879221428765191035e+02,3.879009941948784785e+02,3.878821580674913321e+02,3.878650614420573106e+02,3.878488633897569571e+02,3.878326382107204608e+02,3.878159993489583144e+02,3.877993503146701642e+02,3.877837422688801894e+02,3.877707010904948106e+02,3.877616204155816035e+02,3.877578226725260606e+02,3.877614135742187500e+02,3.877730475531683965e+02,3.877922159830729356e+02,3.878165283203125000e+02,3.878445231119791856e+02,3.878751898871527715e+02,3.879079623752170392e+02,3.879422166612413321e+02,3.879775865342882071e+02,3.880136854383680429e+02,3.880503167046441035e+02,3.880872463650173358e+02,3.881244201660156250e+02,3.881617160373264142e+02,3.881989983452691035e+02,3.882358330620659785e+02,3.882716437445746465e+02,3.883059353298610858e+02,3.883382602267795392e+02,3.883687065972222285e+02,3.883976609971788321e+02,3.884258999294704608e+02,3.884540846082899179e+02,3.884826422797308965e+02,3.885115424262152715e+02,3.885403645833333144e+02,3.885683661566840215e+02,3.885948486328125000e+02,3.886191474066840215e+02,3.886410386827257071e+02,3.886605970594617929e+02,3.886784023708767108e+02,3.886950141059027715e+02,3.887109544542100821e+02,3.887264200846354356e+02,3.887416178385416856e+02,3.887565680609808965e+02,3.887713216145833144e+02,3.887858039008246465e+02,3.887999064127604356e+02,3.888135511610242929e+02,3.888266126844617929e+02,3.888390943739149179e+02,3.888509657118055429e+02,3.888622131347656250e+02,3.888728807237413321e+02,3.888829583062066035e+02,3.888924357096354356e+02,3.889013061523437500e+02,3.889095391167534785e+02,3.889172125922308965e+02,3.889243537055121465e+02,3.889310336642795392e+02,3.889372897677951642e+02,3.889431559244791856e+02,3.889486558702257071e+02,3.889537929958767108e+02,3.889585537380642108e+02,3.889628906250000000e+02,3.889668240017360858e+02,3.889703301323784785e+02,3.889734734429253535e+02,3.889762403700086679e+02,3.889786749945745896e+02
3.897195298936632071e+02,3.896436665852864394e+02,3.895672370062933965e+02,3.894906378851996465e+02,3.894145812988281250e+02,3.893399115668402715e+02,3.892675001356336679e+02,3.891978251139323106e+02,3.891309271918402715e+02,3.890664435492621465e+02,3.890040995279948106e+02,3.889438340928819571e+02,3.888860337999132071e+02,3.888315124511718750e+02,3.887813924153645644e+02,3.887369486490885606e+02,3.886991509331597285e+02,3.886684672037760606e+02,3.886437683105468750e+02,3.886222466362847285e+02,3.886011250813801894e+02,3.885788811577691035e+02,3.885554707845051894e+02,3.885307718912760606e+02,3.885045064290364394e+02,3.884764234754774179e+02,3.884465026855468750e+02,3.884150051540798358e+02,3.883824462890625000e+02,3.883494567871093750e+02,3.883165554470485858e+02,3.882842339409722285e+02,3.882528720431857892e+02,3.882227613661024179e+02,3.881939527723524179e+02,3.881662495930989394e+02,3.881393195258246465e+02,3.881128438313801894e+02,3.880865580240885606e+02,3.880603332519531250e+02,3.880340677897135606e+02,3.880079142252604356e+02,3.879823235405816035e+02,3.879580145941840215e+02,3.879356757269965215e+02,3.879156595865885606e+02,3.878977661132812500e+02,3.878812798394097285e+02,3.878651835123698106e+02,3.878487379286024179e+02,3.878319837782117929e+02,3.878156467013889142e+02,3.878011305067274179e+02,3.877898559570312500e+02,3.877830878363715215e+02,3.877829691569010606e+02,3.877907409667968750e+02,3.878065694173176894e+02,3.878284640842014142e+02,3.878546617296007071e+02,3.878839213053385606e+02,3.879155748155382071e+02,3.879489373101128535e+02,3.879835781521267108e+02,3.880190361870659785e+02,3.880550808376735858e+02,3.880914611816406250e+02,3.881281060112847285e+02,3.881648525661892108e+02,3.882015855577257071e+02,3.882378980848524179e+02,3.882732781304253535e+02,3.883071865505642108e+02,3.883391893174913321e+02,3.883693508572048358e+02,3.883980611165364394e+02,3.884260762532551894e+02,3.884540642632378535e+02,3.884824761284722285e+02,3.885113118489583144e+02,3.885401475694444571e+02,3.885681898328992929e+02,3.885947469075520644e+02,3.886191541883680429e+02,3.886412150065104356e+02,3.886609598795573106e+02,3.886789415147569571e+02,3.886957329644097285e+02,3.887118598090277715e+02,3.887275661892360858e+02,3.887430318196614394e+02,3.887582939995659785e+02,3.887733934190538321e+02,3.887882419162326642e+02,3.888027208116319571e+02,3.888167453342014142e+02,3.888302239312066035e+02,3.888431667751735858e+02,3.888555297851562500e+02,3.888672688802083144e+02,3.888784349229600821e+02,3.888890482584635606e+02,3.888991190592448106e+02,3.889086100260416856e+02,3.889175042046441035e+02,3.889258694118923358e+02,3.889337361653645644e+02,3.889411417643229356e+02,3.889481370713976389e+02,3.889547458224826642e+02,3.889609815809461679e+02,3.889668477376301894e+02,3.889723680284288321e+02,3.889775187174479356e+02,3.889823099772135606e+02,3.889866739908854356e+02,3.889906785753038321e+02,3.889943135579426894e+02,3.889976298014323106e+02
3.898088344997829608e+02,3.897318081325954608e+02,3.896540256076389142e+02,3.895758633083767108e+02,3.894980061848958144e+02,3.894212205674913321e+02,3.893463643391926894e+02,3.892739020453558965e+02,3.892039218478732892e+02,3.891360880533854356e+02,3.890701565212673358e+02,3.890060662163628535e+02,3.889442138671875000e+02,3.888853759765625000e+02,3.888306816948784785e+02,3.887813144259982892e+02,3.887382202148437500e+02,3.887017415364583144e+02,3.886713528103298358e+02,3.886453179253472285e+02,3.886217108832465215e+02,3.885989922417534785e+02,3.885764906141492929e+02,3.885535753038194571e+02,3.885294833713107892e+02,3.885035298665364394e+02,3.884754028320312500e+02,3.884452379014757071e+02,3.884135572645399179e+02,3.883811238606770644e+02,3.883486463758680429e+02,3.883167114257812500e+02,3.882856580946180429e+02,3.882557881673176894e+02,3.882272338867187500e+02,3.881999206542968750e+02,3.881735263400607892e+02,3.881476338704426894e+02,3.881219143337673358e+02,3.880961846245659785e+02,3.880703531901041856e+02,3.880444403754340215e+02,3.880187581380208144e+02,3.879938693576389142e+02,3.879705573187933965e+02,3.879493882921007071e+02,3.879305250379774179e+02,3.879134623209635606e+02,3.878972507052951642e+02,3.878809136284722285e+02,3.878641662597656250e+02,3.878473985460069571e+02,3.878318345811632071e+02,3.878188340928819571e+02,3.878097127278645644e+02,3.878063591851128535e+02,3.878103095160590215e+02,3.878225131564670392e+02,3.878416069878472285e+02,3.878658684624566035e+02,3.878935885959201642e+02,3.879240112304687500e+02,3.879564107259114394e+02,3.879902309841579608e+02,3.880249769422742929e+02,3.880603603786892108e+02,3.880961235894097285e+02,3.881321885850694571e+02,3.881683586968316035e+02,3.882045355902777715e+02,3.882403191460503535e+02,3.882752516004774179e+02,3.883087293836805429e+02,3.883403693305121465e+02,3.883701850043402715e+02,3.883986646864149179e+02,3.884264560275607892e+02,3.884542778862847285e+02,3.884825202094183965e+02,3.885112372504340215e+02,3.885400153266058965e+02,3.885680609809027715e+02,3.885946790907117929e+02,3.886191643608941035e+02,3.886413472493489394e+02,3.886612854003906250e+02,3.886794704861110858e+02,3.886964619954426894e+02,3.887127549913194571e+02,3.887286783854166856e+02,3.887443983289930429e+02,3.887599724663628535e+02,3.887754177517360858e+02,3.887906324598524179e+02,3.888054911295573106e+02,3.888199293348524179e+02,3.888338690863715215e+02,3.888473002115885606e+02,3.888601379394531250e+02,3.888723687065972285e+02,3.888840705023871465e+02,3.888952738444010606e+02,3.889059821234808965e+02,3.889161376953125000e+02,3.889257439507378535e+02,3.889348347981770644e+02,3.889434305826823106e+02,3.889515719943576642e+02,3.889593268500433965e+02,3.889667087131076642e+02,3.889737209743923358e+02,3.889803704155816035e+02,3.889867146809895644e+02,3.889927266438801894e+02,3.889983859592014142e+02,3.890036248101129104e+02,3.890085008409288321e+02,3.890130276150173358e+02,3.890172492133246465e+02
3.898992479112413321e+02,3.898212110731336679e+02,3.897422281901041856e+02,3.896626722547742929e+02,3.895831705729166856e+02,3.895044352213541856e+02,3.894272528754340215e+02,3.893520745171441035e+02,3.892790561252170392e+02,3.892079230414496465e+02,3.891385125054253535e+02,3.890708041720920392e+02,3.890052151150173358e+02,3.889424608018663321e+02,3.888836534288194571e+02,3.888298475477430429e+02,3.887819586859808965e+02,3.887402818467882071e+02,3.887045355902777715e+02,3.886736212836371465e+02,3.886462910970051894e+02,3.886214497884114394e+02,3.885984395345051894e+02,3.885764295789930429e+02,3.885541347927517108e+02,3.885302429199218750e+02,3.885038994683159785e+02,3.884750569661458144e+02,3.884442308213975821e+02,3.884122551812066035e+02,3.883800693088107892e+02,3.883483988444010606e+02,3.883176574707031250e+02,3.882880655924479356e+02,3.882597520616319571e+02,3.882327406141492929e+02,3.882068176269531250e+02,3.881815016004774179e+02,3.881563788519965215e+02,3.881311543782551894e+02,3.881057637532551894e+02,3.880801798502604356e+02,3.880546230740017108e+02,3.880294698079426894e+02,3.880054558648003535e+02,3.879832356770833144e+02,3.879632873535156250e+02,3.879454142252604356e+02,3.879288397894965215e+02,3.879124721950954608e+02,3.878957180447048358e+02,3.878786553276909785e+02,3.878622741699218750e+02,3.878477817111545392e+02,3.878367886013454608e+02,3.878309122721354356e+02,3.878316040039062500e+02,3.878402811686198106e+02,3.878562588161892108e+02,3.878782789442274179e+02,3.879042426215277715e+02,3.879332817925347285e+02,3.879646063910590215e+02,3.879975416395399179e+02,3.880315144856770644e+02,3.880661892361110858e+02,3.881012810601128535e+02,3.881366984049479356e+02,3.881722717285156250e+02,3.882078484429253535e+02,3.882430759006076642e+02,3.882774861653645644e+02,3.883104824490017108e+02,3.883417358398437500e+02,3.883712090386284785e+02,3.883994344075520644e+02,3.884269680447048358e+02,3.884545898437500000e+02,3.884826490614149179e+02,3.885112406412760606e+02,3.885399509006076642e+02,3.885680033365885606e+02,3.885946553548176894e+02,3.886191880967882071e+02,3.886414320203992929e+02,3.886615329318576642e+02,3.886799180772569571e+02,3.886971299913194571e+02,3.887136060926649179e+02,3.887297465006510606e+02,3.887457309299045392e+02,3.887616204155816035e+02,3.887773946126301894e+02,3.887929484049479356e+02,3.888081936306423358e+02,3.888230692545573106e+02,3.888374972873264142e+02,3.888514234754774179e+02,3.888647596571180429e+02,3.888775227864583144e+02,3.888897874620225821e+02,3.889016113281250000e+02,3.889130011664496465e+02,3.889238552517360858e+02,3.889341905381944571e+02,3.889440273708767108e+02,3.889533996582031250e+02,3.889623446994357892e+02,3.889708794487847285e+02,3.889790683322482892e+02,3.889868910047742929e+02,3.889943983289930429e+02,3.890016106499566035e+02,3.890085008409288321e+02,3.890150248209635606e+02,3.890211486816406250e+02,3.890269029405382071e+02,3.890323384602864394e+02,3.890374789767795392e+02
3.899907192654079608e+02,3.899117974175347285e+02,3.898317871093750000e+02,3.897509969075520644e+02,3.896700066460503535e+02,3.895894538031683965e+02,3.895100267198350821e+02,3.894321967230902715e+02,3.893561706542968750e+02,3.892818027072482892e+02,3.892090081108941035e+02,3.891378546820746465e+02,3.890687662760416856e+02,3.890024108886718750e+02,3.889398057725694571e+02,3.888818800184461679e+02,3.888294609917534785e+02,3.887828199598524179e+02,3.887418653700086679e+02,3.887058953179253535e+02,3.886741434733073106e+02,3.886459757486979356e+02,3.886211480034722285e+02,3.885991380479600821e+02,3.885782911512586679e+02,3.885565083821614394e+02,3.885320536295573675e+02,3.885045776367188068e+02,3.884745720757378535e+02,3.884429829915364394e+02,3.884109463161892108e+02,3.883793911404079608e+02,3.883488972981770644e+02,3.883196343315972285e+02,3.882916463216145644e+02,3.882649434407551894e+02,3.882393934461805429e+02,3.882145657009548358e+02,3.881899888780382071e+02,3.881652764214409785e+02,3.881403028700086679e+02,3.881150478786892108e+02,3.880896843804253535e+02,3.880644802517360858e+02,3.880400254991319571e+02,3.880169609917534785e+02,3.879959581163194571e+02,3.879771253797742929e+02,3.879599270290798358e+02,3.879433186848958144e+02,3.879264628092448106e+02,3.879091729058159785e+02,3.878921407063801894e+02,3.878765190972222285e+02,3.878641018337673358e+02,3.878562249077691035e+02,3.878541158040364394e+02,3.878594563802083144e+02,3.878722907172308965e+02,3.878918728298610858e+02,3.879159342447916856e+02,3.879434373643663321e+02,3.879735378689235858e+02,3.880054524739583144e+02,3.880385674370659785e+02,3.880724656846788321e+02,3.881068216959635606e+02,3.881415405273437500e+02,3.881764763726128535e+02,3.882114461263020644e+02,3.882460937500000000e+02,3.882799241807725821e+02,3.883124152289496465e+02,3.883432481553819571e+02,3.883723788791232892e+02,3.884002956814235858e+02,3.884275716145833144e+02,3.884549628363715215e+02,3.884828423394097285e+02,3.885112847222222285e+02,3.885399237738715215e+02,3.885679762098524179e+02,3.885946451822916856e+02,3.886191982693142108e+02,3.886414794921875000e+02,3.886616889105902715e+02,3.886802368164062500e+02,3.886976487901475821e+02,3.887143351236979356e+02,3.887307196723090215e+02,3.887469855414496465e+02,3.887631903754340215e+02,3.887792867024739394e+02,3.887951829698350821e+02,3.888108113606770644e+02,3.888261413574218750e+02,3.888410508897569571e+02,3.888554857042100821e+02,3.888693305121527715e+02,3.888826734754774179e+02,3.888955451117621465e+02,3.889080437554253535e+02,3.889201321072048358e+02,3.889317253960503535e+02,3.889428100585937500e+02,3.889534301757812500e+02,3.889636094835069571e+02,3.889734056260850821e+02,3.889827914767795392e+02,3.889918721516926894e+02,3.890005866156683965e+02,3.890089857313367929e+02,3.890170661078558965e+02,3.890248175726996465e+02,3.890322163899739394e+02,3.890392523871527715e+02,3.890459289550781250e+02,3.890522935655382071e+02,3.890583563910590215e+02
3.900833095974392108e+02,3.900036282009548358e+02,3.899227227105034785e+02,3.898408440483941035e+02,3.897584974500867929e+02,3.896762424045139142e+02,3.895946926540798358e+02,3.895143059624566035e+02,3.894353569878472285e+02,3.893578592936198106e+02,3.892818298339843750e+02,3.892074245876735858e+02,3.891350301106770644e+02,3.890652838812933965e+02,3.889990810818142108e+02,3.889372355143229356e+02,3.888804592556423358e+02,3.888290167914496465e+02,3.887829047309027715e+02,3.887416856553819571e+02,3.887048577202691035e+02,3.886721733940972285e+02,3.886439107259114394e+02,3.886205071343316035e+02,3.886005316840277715e+02,3.885810546875000000e+02,3.885589803059895644e+02,3.885331895616320708e+02,3.885041978624132071e+02,3.884730665418836679e+02,3.884411078559027715e+02,3.884095391167534785e+02,3.883791978624132071e+02,3.883503044976128535e+02,3.883227640787760606e+02,3.882964545355902715e+02,3.882712537977430429e+02,3.882468261718750000e+02,3.882227206759982892e+02,3.881984931098090215e+02,3.881739230685764142e+02,3.881489935980902715e+02,3.881238437228732892e+02,3.880987209743923358e+02,3.880740119086371465e+02,3.880503099229600821e+02,3.880283338758680429e+02,3.880084906684027715e+02,3.879904886881510606e+02,3.879734124077691035e+02,3.879562954372829608e+02,3.879387512207031250e+02,3.879211900499132071e+02,3.879047783745659785e+02,3.878912319607204608e+02,3.878817952473958144e+02,3.878775397406683965e+02,3.878799133300781250e+02,3.878897298177083144e+02,3.879065483940972285e+02,3.879286058213975821e+02,3.879544542100694571e+02,3.879831610785590215e+02,3.880139024522569571e+02,3.880460340711805429e+02,3.880790574815538321e+02,3.881126335991753535e+02,3.881465928819444571e+02,3.881808539496527715e+02,3.882151862250433965e+02,3.882492302788628535e+02,3.882824842664930429e+02,3.883144666883680429e+02,3.883448621961805429e+02,3.883736165364583144e+02,3.884011739095051894e+02,3.884281650119357892e+02,3.884553154839409785e+02,3.884830254448784785e+02,3.885113627115885606e+02,3.885399644639757071e+02,3.885680101182725821e+02,3.885946621365017108e+02,3.886192084418402715e+02,3.886415235731336679e+02,3.886617838541666856e+02,3.886804334852430429e+02,3.886979878743489394e+02,3.887148844401041856e+02,3.887315165201823106e+02,3.887480672200520644e+02,3.887645840115017108e+02,3.887810092502170392e+02,3.887972717285156250e+02,3.888133104112413321e+02,3.888290913899739394e+02,3.888445095486110858e+02,3.888594970703125000e+02,3.888739318847656250e+02,3.888878919813367929e+02,3.889013943142360858e+02,3.889145812988281250e+02,3.889273715549045392e+02,3.889397210015191035e+02,3.889515889485676894e+02,3.889630398220485858e+02,3.889740804036458144e+02,3.889847717285156250e+02,3.889950663248698106e+02,3.890050998263889142e+02,3.890147535536024179e+02,3.890240715874566035e+02,3.890330200195312500e+02,3.890416598849826642e+02,3.890499640570746465e+02,3.890579291449652715e+02,3.890655348036024179e+02,3.890728454589843750e+02,3.890798577202691035e+02
3.901770358615451642e+02,3.900967576768663321e+02,3.900151265462239394e+02,3.899323187934027715e+02,3.898487616644965215e+02,3.897649468315972285e+02,3.896814371744791856e+02,3.895986362033420392e+02,3.895169270833333144e+02,3.894364624023437500e+02,3.893573981391058965e+02,3.892799140082465215e+02,3.892043830023871465e+02,3.891314086914062500e+02,3.890617540147569571e+02,3.889961480034722285e+02,3.889352010091145644e+02,3.888791402180989394e+02,3.888279690212673358e+02,3.887813144259982892e+02,3.887388000488281250e+02,3.887003038194444571e+02,3.886663241916232892e+02,3.886380750868055429e+02,3.886175774468316035e+02,3.886006096733941035e+02,3.885830010308159785e+02,3.885598144531250000e+02,3.885323791503906250e+02,3.885019361707899179e+02,3.884701097276475821e+02,3.884385172526041856e+02,3.884083184136284785e+02,3.883798455132378535e+02,3.883529052734375000e+02,3.883271450466579608e+02,3.883023444281683965e+02,3.882782558865017108e+02,3.882545335557725821e+02,3.882307400173610858e+02,3.882065667046441035e+02,3.881819356282551894e+02,3.881569756401909785e+02,3.881319478352864394e+02,3.881071234809027715e+02,3.880830044216579608e+02,3.880602484809027715e+02,3.880394219292534785e+02,3.880204637315538321e+02,3.880027025010850821e+02,3.879852023654514142e+02,3.879674682617187500e+02,3.879497680664062500e+02,3.879330817328558965e+02,3.879187452528211679e+02,3.879079250759548358e+02,3.879017232259114394e+02,3.879014383951823106e+02,3.879083218044704608e+02,3.879222954644097285e+02,3.879421895345051894e+02,3.879662780761718750e+02,3.879934624565972285e+02,3.880229051378038321e+02,3.880539143880208144e+02,3.880859544542100821e+02,3.881186523437500000e+02,3.881518215603298358e+02,3.881853468153211679e+02,3.882190110948350821e+02,3.882524380154079608e+02,3.882851528591579608e+02,3.883166571723090215e+02,3.883466084798176894e+02,3.883749728732639142e+02,3.884021775987413321e+02,3.884288838704426894e+02,3.884557800292968750e+02,3.884833136664496465e+02,3.885115356445312500e+02,3.885400729709201642e+02,3.885680609809027715e+02,3.885946790907117929e+02,3.886192321777343750e+02,3.886415947808159785e+02,3.886618991427951642e+02,3.886805996365017108e+02,3.886982489691840215e+02,3.887153150770399179e+02,3.887321777343750000e+02,3.887489895290798358e+02,3.887658216688367929e+02,3.887825961642795392e+02,3.887992621527777715e+02,3.888157179090711679e+02,3.888319769965277715e+02,3.888479309082031250e+02,3.888635219997829608e+02,3.888785841200086679e+02,3.888932054307725821e+02,3.889073825412326642e+02,3.889212782118055429e+02,3.889347669813367929e+02,3.889478929307725821e+02,3.889605780707465215e+02,3.889728800455729356e+02,3.889848158094617929e+02,3.889964226616753535e+02,3.890077006022135606e+02,3.890186835394965215e+02,3.890293104383680429e+02,3.890395711263020644e+02,3.890494588216145644e+02,3.890590345594617929e+02,3.890682779947916856e+02,3.890771891276041856e+02,3.890857306586371465e+02,3.890939839680989394e+02,3.891019490559895644e+02
3.902720099555121465e+02,3.901912706163194571e+02,3.901090325249566035e+02,3.900254652235242929e+02,3.899408738878038321e+02,3.898557027180989394e+02,3.897704433865017108e+02,3.896854587131076642e+02,3.896012369791666856e+02,3.895180494520399179e+02,3.894361775716145644e+02,3.893558146158854356e+02,3.892773132324218750e+02,3.892012566460503535e+02,3.891283128526475821e+02,3.890591430664062500e+02,3.889942491319444571e+02,3.889338243272569571e+02,3.888777838812933965e+02,3.888257717556423358e+02,3.887774013943142108e+02,3.887326185438367929e+02,3.886920437282985858e+02,3.886576707628038321e+02,3.886339077419704608e+02,3.886171366373698106e+02,3.886027357313367929e+02,3.885829874674479356e+02,3.885580308702257071e+02,3.885287272135416856e+02,3.884972093370225821e+02,3.884657253689235858e+02,3.884357977973090215e+02,3.884078640407985858e+02,3.883817138671875000e+02,3.883567165798610858e+02,3.883324856228298358e+02,3.883087972005208144e+02,3.882854342990451642e+02,3.882620239257812500e+02,3.882381964789496465e+02,3.882138264973958144e+02,3.881890428331163321e+02,3.881640930175781250e+02,3.881392178005642108e+02,3.881148071289062500e+02,3.880914306640625000e+02,3.880696953667534785e+02,3.880497436523437500e+02,3.880311787923176894e+02,3.880132208930121465e+02,3.879952969021267108e+02,3.879776713053385606e+02,3.879609646267360858e+02,3.879462009006076642e+02,3.879343227810329608e+02,3.879265747070312500e+02,3.879240553114149179e+02,3.879280531141492929e+02,3.879390970865885606e+02,3.879565768771701642e+02,3.879788682725694571e+02,3.880044352213541856e+02,3.880324537489149179e+02,3.880622219509548358e+02,3.880931769476996465e+02,3.881249084472656250e+02,3.881571960449218750e+02,3.881899244520399179e+02,3.882228868272569571e+02,3.882557033962673358e+02,3.882878858778211679e+02,3.883188883463541856e+02,3.883483784993489394e+02,3.883763292100694571e+02,3.884032050238715215e+02,3.884296434190538321e+02,3.884563496907551894e+02,3.884837307400173358e+02,3.885118476019965215e+02,3.885402628580729356e+02,3.885681457519531250e+02,3.885946960449218750e+02,3.886192491319444571e+02,3.886416422526041856e+02,3.886619703504774179e+02,3.886807318793402715e+02,3.886984863281250000e+02,3.887157118055555429e+02,3.887327575683593750e+02,3.887497999403211679e+02,3.887669304741753535e+02,3.887840711805555429e+02,3.888011610243055429e+02,3.888180881076389142e+02,3.888348592122395644e+02,3.888513861762152715e+02,3.888676011827257071e+02,3.888833482530382071e+02,3.888986612955729356e+02,3.889135606553819571e+02,3.889281548394097285e+02,3.889423862033420392e+02,3.889563123914930429e+02,3.889698723687066035e+02,3.889830661349826642e+02,3.889959242078992929e+02,3.890084601508246465e+02,3.890207078721788321e+02,3.890326402452257071e+02,3.890442470974392108e+02,3.890554945203992929e+02,3.890663587782117929e+02,3.890769009060329608e+02,3.890870937771267108e+02,3.890969611273871465e+02,3.891064758300781250e+02,3.891157090928819571e+02,3.891246473524305429e+02
3.903684624565972285e+02,3.902873331705729356e+02,3.902046271430121465e+02,3.901204562717014142e+02,3.900350307888454608e+02,3.899487338595920392e+02,3.898619689941406250e+02,3.897751125759548358e+02,3.896886901855468750e+02,3.896030782063801894e+02,3.895186428493923358e+02,3.894355841742621465e+02,3.893542921278211679e+02,3.892753194173176894e+02,3.891993001302083144e+02,3.891268276638454608e+02,3.890582919650607892e+02,3.889938388400607892e+02,3.889332817925347285e+02,3.888762512207031250e+02,3.888223741319444571e+02,3.887716098361545392e+02,3.887245720757378535e+02,3.886831800672742929e+02,3.886528557671441035e+02,3.886312561035156250e+02,3.886172180175781250e+02,3.886008673773871465e+02,3.885801730685764142e+02,3.885525580512152715e+02,3.885215589735242929e+02,3.884905192057291856e+02,3.884612426757812500e+02,3.884341498480902715e+02,3.884090237087673358e+02,3.883850233289930429e+02,3.883615858289930429e+02,3.883384195963541856e+02,3.883154262966579608e+02,3.882923312717014142e+02,3.882687852647569571e+02,3.882446085611979356e+02,3.882199537489149179e+02,3.881950547960069571e+02,3.881701694064670392e+02,3.881455586751301894e+02,3.881216905381944571e+02,3.880991312662760606e+02,3.880782165527343750e+02,3.880588311089409785e+02,3.880404561360676894e+02,3.880225728352864394e+02,3.880052422417534785e+02,3.879886305067274179e+02,3.879734903971354356e+02,3.879607442220051894e+02,3.879517178005642108e+02,3.879474283854166856e+02,3.879488491482204608e+02,3.879571228027343750e+02,3.879719577365451642e+02,3.879922180175781250e+02,3.880160319010416856e+02,3.880425313313801894e+02,3.880709533691406250e+02,3.881007181803385606e+02,3.881313883463541856e+02,3.881627400716145644e+02,3.881946207682291856e+02,3.882268337673610858e+02,3.882590128580729356e+02,3.882906290690104356e+02,3.883211229112413321e+02,3.883501519097222285e+02,3.883777398003472285e+02,3.884043138292100821e+02,3.884305148654514142e+02,3.884570380316840215e+02,3.884842698838975821e+02,3.885122646755642108e+02,3.885405409071180429e+02,3.885683119032117929e+02,3.885947672526041856e+02,3.886192694769965215e+02,3.886416388617621465e+02,3.886619839138454608e+02,3.886808030870225821e+02,3.886986626519097285e+02,3.887160610622829608e+02,3.887333102756076642e+02,3.887506137424045392e+02,3.887680155436198106e+02,3.887855156792534785e+02,3.888030225965711679e+02,3.888204718695746465e+02,3.888377922905816035e+02,3.888549024793836679e+02,3.888717142740885606e+02,3.888881395128038321e+02,3.889041781955295392e+02,3.889198608398437500e+02,3.889352213541666856e+02,3.889502665201823106e+02,3.889650370279948106e+02,3.889794989691840215e+02,3.889936150444878535e+02,3.890074327256944571e+02,3.890209282769097285e+02,3.890341559516058965e+02,3.890470275878906250e+02,3.890596076117621465e+02,3.890718417697482892e+02,3.890837131076389142e+02,3.890952453613281250e+02,3.891064317491319571e+02,3.891172993977864394e+02,3.891278483072916856e+02,3.891380920410156250e+02,3.891480068630642108e+02
3.904667053222656250e+02,3.903852539062500000e+02,3.903021681043836679e+02,3.902174919976128535e+02,3.901314086914062500e+02,3.900441996256510606e+02,3.899562310112847285e+02,3.898678792317708144e+02,3.897796223958333144e+02,3.896919013129340215e+02,3.896051262749566035e+02,3.895196160210503535e+02,3.894357537163628535e+02,3.893541158040364394e+02,3.892752821180555429e+02,3.891997985839843750e+02,3.891279330783420392e+02,3.890597941080729356e+02,3.889951443142360858e+02,3.889336513943142108e+02,3.888750033908420392e+02,3.888192443847656818e+02,3.887671135796441035e+02,3.887203843858507071e+02,3.886821933322482892e+02,3.886527201334635606e+02,3.886335144042968750e+02,3.886174350314670392e+02,3.885987582736545392e+02,3.885726047092014142e+02,3.885422668457031250e+02,3.885123053656683965e+02,3.884842868381076642e+02,3.884585028754340215e+02,3.884346856011284785e+02,3.884119364420573106e+02,3.883895467122395644e+02,3.883671027289496465e+02,3.883445400661892108e+02,3.883217095269097285e+02,3.882983669704860858e+02,3.882743394639757071e+02,3.882497694227430429e+02,3.882248704698350821e+02,3.881999070909288321e+02,3.881750725640191035e+02,3.881507364908854356e+02,3.881274447970920392e+02,3.881056722005208144e+02,3.880855339898003535e+02,3.880667453342014142e+02,3.880488925509982892e+02,3.880317993164062500e+02,3.880153672960069571e+02,3.880000678168402715e+02,3.879867824978298358e+02,3.879767761230468750e+02,3.879710625542534785e+02,3.879703199598524179e+02,3.879760335286458144e+02,3.879882032606336679e+02,3.880062628851996465e+02,3.880282219780816035e+02,3.880530836317274179e+02,3.880800679524739394e+02,3.881085272894965215e+02,3.881380581325954608e+02,3.881683993869357892e+02,3.881994188096788321e+02,3.882308892144097285e+02,3.882624070909288321e+02,3.882934231228298358e+02,3.883233744303385606e+02,3.883519422743055429e+02,3.883791639539930429e+02,3.884054429796007071e+02,3.884314303927951642e+02,3.884578043619791856e+02,3.884849310980902715e+02,3.885128309461805429e+02,3.885409749348958144e+02,3.885685933430989394e+02,3.885948927137586679e+02,3.886192796495225821e+02,3.886415710449218750e+02,3.886619059244791856e+02,3.886807827419704608e+02,3.886987677680121465e+02,3.887163323296441035e+02,3.887337816026475821e+02,3.887513529459635606e+02,3.887690599229600821e+02,3.887869466145833144e+02,3.888048943413628535e+02,3.888228793674045392e+02,3.888407626681857892e+02,3.888584832085503535e+02,3.888759155273437500e+02,3.888930528428819571e+02,3.889098375108507071e+02,3.889263237847222285e+02,3.889424913194444571e+02,3.889584011501735858e+02,3.889740566677517108e+02,3.889894341362847285e+02,3.890045030381944571e+02,3.890192972819010606e+02,3.890337863498264142e+02,3.890479939778645644e+02,3.890618489583333144e+02,3.890754191080729925e+02,3.890886467827691035e+02,3.891015353732639142e+02,3.891140882703992929e+02,3.891263224283854356e+02,3.891382446289062500e+02,3.891498684353298358e+02,3.891611463758680429e+02,3.891720648871527715e+02
