3.868444552951389142e+02,3.867966749403211679e+02,3.867277832031250000e+02,3.865566677517360858e+02,3.864933336046007071e+02,3.865511135525173358e+02,3.867266676161024179e+02,3.868155551486545392e+02,3.868311089409722285e+02,3.867500033908420392e+02,3.865622253417968750e+02,3.862955593532985858e+02,3.860399983723958144e+02,3.858388875325520644e+02,3.857144436306423358e+02,3.856799994574652715e+02,3.856988898383246465e+02,3.857699991861979356e+02,3.858533325195312500e+02,3.859433322482639142e+02,3.859755554199218750e+02,3.858988918728298358e+02,3.856877814398871465e+02,3.853800014919704608e+02,3.850300021701389142e+02,3.846888902452257071e+02,3.843022223578558965e+02,3.839388868543836679e+02,3.835822177463107892e+02,3.832777743869357892e+02,3.830277743869357892e+02,3.827544453938801894e+02,3.824977789984808965e+02,3.822100016276041856e+02,3.819755520290798358e+02,3.817666659884982892e+02,3.815744425455729356e+02,3.813555569118923358e+02,3.811166687011718750e+02,3.808733350965711679e+02,3.806677822536892108e+02,3.805233357747395644e+02,3.804355570475260606e+02,3.803688863118489394e+02,3.803088887532551894e+02,3.803555603027343750e+02,3.805077819824218750e+02,3.808111131456163321e+02,3.811277770996093750e+02,3.814777798122829608e+02,3.819155578613281250e+02,3.822788933648003535e+02,3.825911153157551894e+02,3.828033379448784785e+02,3.830344475640190467e+02,3.832933349609375000e+02,3.834744466145833144e+02,3.836111145019531250e+02,3.836988932291666856e+02,3.838400031195746465e+02,3.841122233072916856e+02,3.844922214084201642e+02,3.849433322482639142e+02,3.853244425455729356e+02,3.856788906521267108e+02,3.860299987792968750e+02,3.864155544704860858e+02,3.867722201877170392e+02,3.871322258843316035e+02,3.874622260199652715e+02,3.878066677517360858e+02,3.881122199164496465e+02,3.884244418674045392e+02,3.887100016276042425e+02,3.889911159939235858e+02,3.892511155870225821e+02,3.894700012207031250e+02,3.896555514865451642e+02,3.898255513509114394e+02,3.900066630045573106e+02,3.901888868543836679e+02,3.903833279079860858e+02,3.905299919976128535e+02,3.906299913194444571e+02,3.906977742513020644e+02,3.907711113823784785e+02,3.908088921440972285e+02,3.908433363172742929e+02,3.908533325195312500e+02,3.908811102973090215e+02,3.909288872612847285e+02,3.910011088053385606e+02,3.910411071777344318e+02,3.910411071777343750e+02,3.910611097547742929e+02,3.911122233072916856e+02,3.911888936360676894e+02,3.912477823893229356e+02,3.913022257486979356e+02,3.913444451226128535e+02,3.913888888888889142e+02,3.914533284505208144e+02,3.915133293999566035e+02,3.915477769639757071e+02,3.915288933648003535e+02,3.914644470214843750e+02,3.913933308919270644e+02,3.913655497233073106e+02,3.914111090766058965e+02,3.915288933648003535e+02,3.916555616590711679e+02,3.917388949924045392e+02,3.917466701931423358e+02,3.916888936360676325e+02,3.916422254774304861e+02,3.915977783203125000e+02,3.915544433593750000e+02,3.914866672092014142e+02,3.914077792697482892e+02
3.868700052897135606e+02,3.869222276475694571e+02,3.870011121961805429e+02,3.870555555555555429e+02,3.870733303493923358e+02,3.870944451226128535e+02,3.871588880750867929e+02,3.872377794053819571e+02,3.872699991861979356e+02,3.871888902452257071e+02,3.870066663953992929e+02,3.867633327907985858e+02,3.865444437662760606e+02,3.863766649034288321e+02,3.862544453938801894e+02,3.861933322482639142e+02,3.861644456651475821e+02,3.861533338758680429e+02,3.861411132812500000e+02,3.861222229003906250e+02,3.860522223578558965e+02,3.858922220865885606e+02,3.856233350965711679e+02,3.852900017632378535e+02,3.849166700575086679e+02,3.845455559624566035e+02,3.841233317057291856e+02,3.837366638183593750e+02,3.833644409179687500e+02,3.830422193739149179e+02,3.827677747938367929e+02,3.825055575900607892e+02,3.822755567762586679e+02,3.820255567762586679e+02,3.817933281792534785e+02,3.815944417317708144e+02,3.814022182888454608e+02,3.812044440375433965e+02,3.809788920084635606e+02,3.807655571831597285e+02,3.806033359103732892e+02,3.805177781846788321e+02,3.804811096191406250e+02,3.804388868543836679e+02,3.803711073133680429e+02,3.804044460720485858e+02,3.805422227647569571e+02,3.808333333333333144e+02,3.811422220865885606e+02,3.814922247992621465e+02,3.819444478352864394e+02,3.823188917371961679e+02,3.826455552842882071e+02,3.828844434950086679e+02,3.831677754720051894e+02,3.834788886176215215e+02,3.837188924153645644e+02,3.838866712782117929e+02,3.839733378092448106e+02,3.840355597601996465e+02,3.842055596245659785e+02,3.844833340115017108e+02,3.848655531141492929e+02,3.852088860405816035e+02,3.855566677517360858e+02,3.858988884819878535e+02,3.862566663953992929e+02,3.865922207302517108e+02,3.869355570475260606e+02,3.872711113823784785e+02,3.876011115180121465e+02,3.878966640896267108e+02,3.881822204589843750e+02,3.884555562337239962e+02,3.887300042046441035e+02,3.890055575900607892e+02,3.892533298068576642e+02,3.894855482313367929e+02,3.896944376627604356e+02,3.899044392903645644e+02,3.901155531141492929e+02,3.903377753363715215e+02,3.905122172037760606e+02,3.906377699110242929e+02,3.907322150336371465e+02,3.908299967447916856e+02,3.909033338758680429e+02,3.909722256130642108e+02,3.910166693793402715e+02,3.910566677517360858e+02,3.911144443088107892e+02,3.912077772352430429e+02,3.912799987792968750e+02,3.913133307562933965e+02,3.913455539279514142e+02,3.913966674804687500e+02,3.914744500054253535e+02,3.915300055609808965e+02,3.915788947211370896e+02,3.916011115180121465e+02,3.916233317057291856e+02,3.916733262803819571e+02,3.917177734375000000e+02,3.917444424099392108e+02,3.916922234429253535e+02,3.915977783203125000e+02,3.915022210015191035e+02,3.914511074490017108e+02,3.914733310275607892e+02,3.915633341471354356e+02,3.916755574544270644e+02,3.917622239854600821e+02,3.917655571831597285e+02,3.917288920084635038e+02,3.916944478352864394e+02,3.916799994574652715e+02,3.916544426812066035e+02,3.916077779134114394e+02,3.915511135525173358e+02
3.870166659884982892e+02,3.871433342827691035e+02,3.872688903808593750e+02,3.873700018988715215e+02,3.874266662597656250e+02,3.874533318413628535e+02,3.875244411892360858e+02,3.876022237141926894e+02,3.876422220865885606e+02,3.875633341471354356e+02,3.874022182888454608e+02,3.871988864474826642e+02,3.870222201877170392e+02,3.868666653103298358e+02,3.867133348253038321e+02,3.865677795410156250e+02,3.864477810329860858e+02,3.863200005425347285e+02,3.862200012207031250e+02,3.860944451226128535e+02,3.859544440375433965e+02,3.857322218153211679e+02,3.854500020345051894e+02,3.851088935004340215e+02,3.847411159939235858e+02,3.843644443088107892e+02,3.839399990505642108e+02,3.835533311631944571e+02,3.831644422743055429e+02,3.828344421386718750e+02,3.825399949815538321e+02,3.822888895670573106e+02,3.820744459364149179e+02,3.818500027126735858e+02,3.816344401041666856e+02,3.814488864474826642e+02,3.812655537923176894e+02,3.810811123318142108e+02,3.808800014919704608e+02,3.807111104329426894e+02,3.805988871256510606e+02,3.805488857693142108e+02,3.805411071777343750e+02,3.804944424099392108e+02,3.804277750651041856e+02,3.804433356391058965e+02,3.805777791341145644e+02,3.808477783203125000e+02,3.811411098904079608e+02,3.814900004069010606e+02,3.819622226291232892e+02,3.823466661241319571e+02,3.826777750651041856e+02,3.829255540635850821e+02,3.832466668023003535e+02,3.836066691080729356e+02,3.838977830674913321e+02,3.841244472927517108e+02,3.842388916015625000e+02,3.842811143663194571e+02,3.843588935004340215e+02,3.845011121961805429e+02,3.847566630045573106e+02,3.850455525716145644e+02,3.854000006781683965e+02,3.857799987792968750e+02,3.861466640896267108e+02,3.865033298068576642e+02,3.868522237141926894e+02,3.871933356391058965e+02,3.875133361816406250e+02,3.878011101616753535e+02,3.880922207302517108e+02,3.883733350965711679e+02,3.886522250705295392e+02,3.889233330620659785e+02,3.891599934895833712e+02,3.893977695041232892e+02,3.896244405110676894e+02,3.898555501302083144e+02,3.900866631401909785e+02,3.903155517578125000e+02,3.905088873969183965e+02,3.906511060926649179e+02,3.907588806152343750e+02,3.908666619194878535e+02,3.909522230360242929e+02,3.910388929578992929e+02,3.911200018988715215e+02,3.911933322482639142e+02,3.912888861762152715e+02,3.914122212727864394e+02,3.915188903808593750e+02,3.915788913302951642e+02,3.916211107042100821e+02,3.916722208658854356e+02,3.917544453938801894e+02,3.918077799479166856e+02,3.918500027126735858e+02,3.918588901095920392e+02,3.918677775065104356e+02,3.919099968804253535e+02,3.919477742513020644e+02,3.919666646321614394e+02,3.918988884819878535e+02,3.918033345540364394e+02,3.917033352322048358e+02,3.916611124674479356e+02,3.916688910590277715e+02,3.917300008138020644e+02,3.917922227647569571e+02,3.918422207302517108e+02,3.918311123318142108e+02,3.918066711425781250e+02,3.917822265625000000e+02,3.917866685655382071e+02,3.917744445800781250e+02,3.917511121961805429e+02,3.917200012207031250e+02
3.871844414605034785e+02,3.873522203233507071e+02,3.874777764214409785e+02,3.875822211371527715e+02,3.876488884819878535e+02,3.876888868543836679e+02,3.877644415961371465e+02,3.878355577256944571e+02,3.878811136881510606e+02,3.878211127387152715e+02,3.877022196451823106e+02,3.875388861762152715e+02,3.873866644965277715e+02,3.872188856336805429e+02,3.870077785915798358e+02,3.867688903808593750e+02,3.865400017632378535e+02,3.863033311631944571e+02,3.861011115180121465e+02,3.858800014919704608e+02,3.856888902452257071e+02,3.854588860405816035e+02,3.851899990505642108e+02,3.848555569118923358e+02,3.844977823893229356e+02,3.841455586751301894e+02,3.837500000000000000e+02,3.833711073133680429e+02,3.829811062282985858e+02,3.826544426812066035e+02,3.823622199164496465e+02,3.821155565049913321e+02,3.819177788628472285e+02,3.817111138237847285e+02,3.815044420030382071e+02,3.813111097547742929e+02,3.811277770996093750e+02,3.809677802191840215e+02,3.808111131456163321e+02,3.806922234429253535e+02,3.806066657172308965e+02,3.805766635470920392e+02,3.805766635470920392e+02,3.805333319769965215e+02,3.804744432237413321e+02,3.804911126030816035e+02,3.806477796766492929e+02,3.809177788628472285e+02,3.812077772352430429e+02,3.815233323838975821e+02,3.819844428168402715e+02,3.823711073133680429e+02,3.827166612413194571e+02,3.829622192382812500e+02,3.832999979654948106e+02,3.836855570475260606e+02,3.840200025770399179e+02,3.842888895670573106e+02,3.844655558268229356e+02,3.845477803548176894e+02,3.846033359103732892e+02,3.846644422743055429e+02,3.847999945746527715e+02,3.850222201877170392e+02,3.853388909233941035e+02,3.857233344184027715e+02,3.860866665310329608e+02,3.864566684299045392e+02,3.868088921440972285e+02,3.871566704644097285e+02,3.874766676161024179e+02,3.877799987792968750e+02,3.880933329264323106e+02,3.883922254774305429e+02,3.886844482421875000e+02,3.889588894314235858e+02,3.891933288574218750e+02,3.894177720811632071e+02,3.896444396972656250e+02,3.898788825141058965e+02,3.901177741156683965e+02,3.903466661241319571e+02,3.905466681586371465e+02,3.906988864474826642e+02,3.908122151692708144e+02,3.909199930826823106e+02,3.910244411892360858e+02,3.911311102973090215e+02,3.912422214084201642e+02,3.913322211371527715e+02,3.914577772352430429e+02,3.916111145019531250e+02,3.917444491916232892e+02,3.918211161295573106e+02,3.918733350965711679e+02,3.919255540635851389e+02,3.920122205946180429e+02,3.920644429524739394e+02,3.921122233072916856e+02,3.921088901095920392e+02,3.920988905164930429e+02,3.921244439019097285e+02,3.921544426812066035e+02,3.921777750651041856e+02,3.921244405110676894e+02,3.920566643608941035e+02,3.919733344184027715e+02,3.919344482421875000e+02,3.919400024414062500e+02,3.919844428168402715e+02,3.920088873969183965e+02,3.920177747938367929e+02,3.919844428168402715e+02,3.919577772352430429e+02,3.919277784559461679e+02,3.919266662597656250e+02,3.919166666666666856e+02,3.919077792697482892e+02,3.919100036621093750e+02
3.871966654459635606e+02,3.873533325195312500e+02,3.875055575900607892e+02,3.876144443088107892e+02,3.876866692437066035e+02,3.877266642252604356e+02,3.877977769639757071e+02,3.878788892957899179e+02,3.879400024414062500e+02,3.879222242567274179e+02,3.878444451226128535e+02,3.877277798122829608e+02,3.875722215440538321e+02,3.873722195095485858e+02,3.870811123318142108e+02,3.867733357747395644e+02,3.864555596245659785e+02,3.861355556911892108e+02,3.858377787272135606e+02,3.855522223578558965e+02,3.853222215440538321e+02,3.850877753363715215e+02,3.848344421386718750e+02,3.845311109754774179e+02,3.842200012207031250e+02,3.839066704644097285e+02,3.835444471571180429e+02,3.831922234429253535e+02,3.828111097547742929e+02,3.824977756076389142e+02,3.822033318413628535e+02,3.819666680230034785e+02,3.817800055609808965e+02,3.815866733127170392e+02,3.813988918728298358e+02,3.812111138237847285e+02,3.810500013563367929e+02,3.809133368598090215e+02,3.807944437662760606e+02,3.806955532497829608e+02,3.806377733018663321e+02,3.805977715386284785e+02,3.806077745225694571e+02,3.805644429524739394e+02,3.805388895670573106e+02,3.805611131456163889e+02,3.807422247992621465e+02,3.810355563693576642e+02,3.813655531141492929e+02,3.816688842773437500e+02,3.821222195095485858e+02,3.824822184244791856e+02,3.828299967447916856e+02,3.830655517578125000e+02,3.833977762858073106e+02,3.837755567762586679e+02,3.841144476996527715e+02,3.844011128743489394e+02,3.846200018988715215e+02,3.847711147732204608e+02,3.848766682942708144e+02,3.849533318413628535e+02,3.850444403754340215e+02,3.851933322482639142e+02,3.854444478352864394e+02,3.857933349609375000e+02,3.861722208658854356e+02,3.865433315700954608e+02,3.869000006781683965e+02,3.872255588107639142e+02,3.875422193739149179e+02,3.878466627332899179e+02,3.881922200520833144e+02,3.885288933648003535e+02,3.888455607096354356e+02,3.891233350965711679e+02,3.893477749294704608e+02,3.895577731662326642e+02,3.897666625976562500e+02,3.899866604275173358e+02,3.902122158474392108e+02,3.904288838704426894e+02,3.906255527072482892e+02,3.907811075846354356e+02,3.909088846842448106e+02,3.910222167968750000e+02,3.911311069064670392e+02,3.912422180175781250e+02,3.913633287217882071e+02,3.914766642252604356e+02,3.916388854980468750e+02,3.918377787272135606e+02,3.919877794053819571e+02,3.920577833387586679e+02,3.920977817111545392e+02,3.921477796766492929e+02,3.922355550130208144e+02,3.922877773708767108e+02,3.923355543348524179e+02,3.923255547417534785e+02,3.922955559624566035e+02,3.923033345540364394e+02,3.923266669379340215e+02,3.923566657172308965e+02,3.923422207302517108e+02,3.923211127387152715e+02,3.922877807617187500e+02,3.922722269694010606e+02,3.922733357747395644e+02,3.922866651746961679e+02,3.922733323838975821e+02,3.922566630045573106e+02,3.922099982367621465e+02,3.921611090766058965e+02,3.921144443088107892e+02,3.920966661241319571e+02,3.920933329264323106e+02,3.920955573187933965e+02,3.921233384874132071e+02
3.871799994574652715e+02,3.873088887532551894e+02,3.874622226291232892e+02,3.875833333333333144e+02,3.876755574544270644e+02,3.877433336046007071e+02,3.878166673448350821e+02,3.878955552842882071e+02,3.879544474283854356e+02,3.879677802191840215e+02,3.879288940429687500e+02,3.878400065104166856e+02,3.876788940429687500e+02,3.874500020345051894e+02,3.871122266981336679e+02,3.867611151801215215e+02,3.863888922797308965e+02,3.860033331976996465e+02,3.856111111111110858e+02,3.852455546061198106e+02,3.849677768283420392e+02,3.847199978298610858e+02,3.844688856336805429e+02,3.841933322482639142e+02,3.839211120605468750e+02,3.836533406575520644e+02,3.833233371310764142e+02,3.829922247992621465e+02,3.826400010850694571e+02,3.823399997287326642e+02,3.820655585394965215e+02,3.818444451226128535e+02,3.816666700575086679e+02,3.814888916015625000e+02,3.812955593532985858e+02,3.811288926866319571e+02,3.809933336046007071e+02,3.808833346896701642e+02,3.807888895670572538e+02,3.806966688368055429e+02,3.806566670735676894e+02,3.806311102973090215e+02,3.806644456651475821e+02,3.806277770996093750e+02,3.806066657172308965e+02,3.806388854980468750e+02,3.808388875325520644e+02,3.811855536566840215e+02,3.815577765570746465e+02,3.818933308919270644e+02,3.823344455295139142e+02,3.826744452582465215e+02,3.830133327907985858e+02,3.832444424099392108e+02,3.835611063639323106e+02,3.839144422743055429e+02,3.842366638183593750e+02,3.845222235785590215e+02,3.847633361816406250e+02,3.849433390299479356e+02,3.851055569118923358e+02,3.852455546061198106e+02,3.853844401041666856e+02,3.855166625976562500e+02,3.856833326551649179e+02,3.859322204589843750e+02,3.862422214084201642e+02,3.865755547417534785e+02,3.869066670735676894e+02,3.872200012207031250e+02,3.875355495876735858e+02,3.878544379340277715e+02,3.882122158474392108e+02,3.885577765570746465e+02,3.888811136881510606e+02,3.891733364529079608e+02,3.894300028483073106e+02,3.896544460720485858e+02,3.898511081271701642e+02,3.900466613769531250e+02,3.902522176106770644e+02,3.904588860405816604e+02,3.906544426812066035e+02,3.908211059570312500e+02,3.909777764214409785e+02,3.911155531141493498e+02,3.912511088053386175e+02,3.913788859049479356e+02,3.915077752007378535e+02,3.916311136881510606e+02,3.918033345540364394e+02,3.920344475640191035e+02,3.921900024414062500e+02,3.922655605740017108e+02,3.922966715494791856e+02,3.923477817111545392e+02,3.924300028483073106e+02,3.924733344184027715e+02,3.925166659884982323e+02,3.925033298068576642e+02,3.924611104329426894e+02,3.924433322482639142e+02,3.924511108398437500e+02,3.924799974229600821e+02,3.925011088053385606e+02,3.925288899739583144e+02,3.925477803548176894e+02,3.925522257486979356e+02,3.925400017632378535e+02,3.925299987792968750e+02,3.925011121961805429e+02,3.924766642252604356e+02,3.924222208658854356e+02,3.923599955240885606e+02,3.922977769639757071e+02,3.922666659884982892e+02,3.922633327907985858e+02,3.922800021701389142e+02,3.923311157226562500e+02
3.872477789984808965e+02,3.873388909233941035e+02,3.874722222222222285e+02,3.875644463433159785e+02,3.876444464789496465e+02,3.877244466145833144e+02,3.878188917371961679e+02,3.879122212727864394e+02,3.879911126030816035e+02,3.880322231716579608e+02,3.880200025770399179e+02,3.879455600314670392e+02,3.877822265625000000e+02,3.875433383517795392e+02,3.871911180284288321e+02,3.868111165364583144e+02,3.863977830674913321e+02,3.859477810329860858e+02,3.854877794053819571e+02,3.850588887532551894e+02,3.847266642252604356e+02,3.844322204589843750e+02,3.841533304850260606e+02,3.838722195095485858e+02,3.836322191026475821e+02,3.833944464789496465e+02,3.831088901095920392e+02,3.828144463433159785e+02,3.824966668023003535e+02,3.822144436306423358e+02,3.819477810329860858e+02,3.817422247992621465e+02,3.815722249348958144e+02,3.813977796766492929e+02,3.812244466145833144e+02,3.810922275119357892e+02,3.809911126030816035e+02,3.808900010850694002e+02,3.807966647677951642e+02,3.807055562337238825e+02,3.806733330620659785e+02,3.806611124674479356e+02,3.807133348253038321e+02,3.806966688368055429e+02,3.806833360460069571e+02,3.807222222222222285e+02,3.809266662597656250e+02,3.813166639539930429e+02,3.817433336046007071e+02,3.821455552842882071e+02,3.826055603027343750e+02,3.829400024414062500e+02,3.832622239854600821e+02,3.834911092122395644e+02,3.838011101616753535e+02,3.841222229003906250e+02,3.844055548773871465e+02,3.846699998643663321e+02,3.849122246636284785e+02,3.851155598958333144e+02,3.853133341471354356e+02,3.854966668023003535e+02,3.856855536566840215e+02,3.858300001356336679e+02,3.859677768283420392e+02,3.861333312988281250e+02,3.863611077202691035e+02,3.866299981011284785e+02,3.869244452582465215e+02,3.872155592176649179e+02,3.875155537923176894e+02,3.878266635470920392e+02,3.881744384765625000e+02,3.885199957953558965e+02,3.888444417317708144e+02,3.891477762858073106e+02,3.894244452582465215e+02,3.896688910590277715e+02,3.898611111111110858e+02,3.900377739800347285e+02,3.902144402398003535e+02,3.904133300781250568e+02,3.906077779134114394e+02,3.907866651746961679e+02,3.909711134168836679e+02,3.911455552842882071e+02,3.913144429524739962e+02,3.914677768283420392e+02,3.916088901095920392e+02,3.917477823893229356e+02,3.919166666666666856e+02,3.921677754720051894e+02,3.923122185601128535e+02,3.923966674804687500e+02,3.924122246636284785e+02,3.924833374023437500e+02,3.925633375379774179e+02,3.926022271050347285e+02,3.926366712782117929e+02,3.926288892957899179e+02,3.925877787272135606e+02,3.925499979654948106e+02,3.925377773708767108e+02,3.925588853624132071e+02,3.925966661241319571e+02,3.926455586751301894e+02,3.926800062391492929e+02,3.926844516330295392e+02,3.926666734483507071e+02,3.926544494628906250e+02,3.926344502766926894e+02,3.926111111111110858e+02,3.925622219509548358e+02,3.924966634114583144e+02,3.924399990505642108e+02,3.924100002712673358e+02,3.924122212727864394e+02,3.924244452582465215e+02,3.924800008138020644e+02
3.875033331976996465e+02,3.875400017632378535e+02,3.875355563693576642e+02,3.875133361816406250e+02,3.875299987792968750e+02,3.876644456651475821e+02,3.878288913302951642e+02,3.879644470214843750e+02,3.880633375379774179e+02,3.881366712782117929e+02,3.881566704644097285e+02,3.881066691080729356e+02,3.879466688368055429e+02,3.877088928222655682e+02,3.873422275119357892e+02,3.869388936360676894e+02,3.865011155870225821e+02,3.860055575900607892e+02,3.854888882107204608e+02,3.849977756076389142e+02,3.846133321126301894e+02,3.842666659884982892e+02,3.839366658528645644e+02,3.836288859049479356e+02,3.833799981011284785e+02,3.831600002712673358e+02,3.829000006781683965e+02,3.826477762858073106e+02,3.823666653103298358e+02,3.821222195095485858e+02,3.818955586751301894e+02,3.817100016276041856e+02,3.815422227647569571e+02,3.813755560980902715e+02,3.812255554199218750e+02,3.811333380805121465e+02,3.810411105685764142e+02,3.809399990505642108e+02,3.808444417317708144e+02,3.807577785915798358e+02,3.807266676161024179e+02,3.807266710069444571e+02,3.807722269694010606e+02,3.807655605740017108e+02,3.807355584038628535e+02,3.807999979654948106e+02,3.809911092122395644e+02,3.813922186957465215e+02,3.818188883463541856e+02,3.822711113823784785e+02,3.827822265625000000e+02,3.831633368598090215e+02,3.835122239854600821e+02,3.837377760145399179e+02,3.840344441731770644e+02,3.843288879394531250e+02,3.845922173394097285e+02,3.848444383409288321e+02,3.850877753363715215e+02,3.853111131456163321e+02,3.855500013563367929e+02,3.857688903808593750e+02,3.859855550130208144e+02,3.861488884819878535e+02,3.862844407823350821e+02,3.864044392903645644e+02,3.865433281792534785e+02,3.867388882107204608e+02,3.869755588107639142e+02,3.872288953993055429e+02,3.874966701931423358e+02,3.877766689724392108e+02,3.880988871256510606e+02,3.884088846842448106e+02,3.887199944390191035e+02,3.890155504014757071e+02,3.892944437662760606e+02,3.895388895670573106e+02,3.897322218153211679e+02,3.899088846842448106e+02,3.900799967447916856e+02,3.902699991861979356e+02,3.904688924153645644e+02,3.906611124674479356e+02,3.908688930935329608e+02,3.910711127387152715e+02,3.912722235785590215e+02,3.914566650390625000e+02,3.916244439019097285e+02,3.917755567762586679e+02,3.919255540635850821e+02,3.921444396972656250e+02,3.922833285861545392e+02,3.923966674804687500e+02,3.924522230360242929e+02,3.925522223578558965e+02,3.926433308919270644e+02,3.926899990505642108e+02,3.927133348253038321e+02,3.926966688368055429e+02,3.926477796766492929e+02,3.925933329264323106e+02,3.925688883463541856e+02,3.925699971516926894e+02,3.925966661241319571e+02,3.926333346896701642e+02,3.926666734483507071e+02,3.926777852376301894e+02,3.926688978407117929e+02,3.926611192491319571e+02,3.926477864583333144e+02,3.926322258843316035e+02,3.926055569118923358e+02,3.925788879394531250e+02,3.925488891601562500e+02,3.925355563693576642e+02,3.925233323838975821e+02,3.925099995930989394e+02,3.925344441731770644e+02
3.877688903808593750e+02,3.877344462076823106e+02,3.875888909233941035e+02,3.874411146375867929e+02,3.873877766927083144e+02,3.875611097547742929e+02,3.877888895670573106e+02,3.879800008138020644e+02,3.881200018988715215e+02,3.882288920084635606e+02,3.882800021701389142e+02,3.882422247992621465e+02,3.880933329264323106e+02,3.878466695149739394e+02,3.874577806260850821e+02,3.870200025770399179e+02,3.865511135525173358e+02,3.860288899739583144e+02,3.854833340115017108e+02,3.849788886176215215e+02,3.845666673448350821e+02,3.841933322482639142e+02,3.838200005425347285e+02,3.834833306206597285e+02,3.832133314344617929e+02,3.829999966091579608e+02,3.827566663953992929e+02,3.825388861762152715e+02,3.822899983723958144e+02,3.820922207302517108e+02,3.819000040690104356e+02,3.817277832031250000e+02,3.815711127387152715e+02,3.814200032552083144e+02,3.813077765570746465e+02,3.812333374023437500e+02,3.811422220865885606e+02,3.810366651746961679e+02,3.809499952528211679e+02,3.808655531141492929e+02,3.808233337402343750e+02,3.807933349609375000e+02,3.808233337402343750e+02,3.808266703287760606e+02,3.807733357747395644e+02,3.808244459364149179e+02,3.809977756076389142e+02,3.814011094835069571e+02,3.818155517578125000e+02,3.822677747938367929e+02,3.828466661241319571e+02,3.833288879394531250e+02,3.837399970160590215e+02,3.839622158474392108e+02,3.842344428168402715e+02,3.845133327907985858e+02,3.847811075846354356e+02,3.850466579861110858e+02,3.853222147623698106e+02,3.856055535210503535e+02,3.858777770996093750e+02,3.861222229003906250e+02,3.863388875325520644e+02,3.865222235785590215e+02,3.866777750651041856e+02,3.867844407823350821e+02,3.868755493164062500e+02,3.869966668023003535e+02,3.871600036621093750e+02,3.873455641004774179e+02,3.875466715494791856e+02,3.877844475640191035e+02,3.880688883463541856e+02,3.883611077202691035e+02,3.886544392903645644e+02,3.889388834635416856e+02,3.892033318413628535e+02,3.894522196451823106e+02,3.896599968804254104e+02,3.898566589355468750e+02,3.900277709960937500e+02,3.902299974229600821e+02,3.904377814398871465e+02,3.906388956705729356e+02,3.908477851019965215e+02,3.910488925509982892e+02,3.912688903808593750e+02,3.914611104329426894e+02,3.916533338758680429e+02,3.918000013563367929e+02,3.919322204589843750e+02,3.920799967447916856e+02,3.921944410536024179e+02,3.923066677517360858e+02,3.924033338758680429e+02,3.925344441731770644e+02,3.926388854980468750e+02,3.927133314344617929e+02,3.927211100260416856e+02,3.926922234429253535e+02,3.925966661241319571e+02,3.925266655815972285e+02,3.924622226291232892e+02,3.924533352322048358e+02,3.924544474283854356e+02,3.924955579969618498e+02,3.925244479709201642e+02,3.925622253417968750e+02,3.925866699218750000e+02,3.926177808973524179e+02,3.926388922797308965e+02,3.926666666666666856e+02,3.926877746582031250e+02,3.927122192382812500e+02,3.927322184244791856e+02,3.927533298068576642e+02,3.927566630045573106e+02,3.927433302137587248e+02,3.927644449869791856e+02
3.879655524359808965e+02,3.878566657172308965e+02,3.876088935004340215e+02,3.873777838812933965e+02,3.872955559624565467e+02,3.874955546061198106e+02,3.877711113823784785e+02,3.880133361816406250e+02,3.881677788628472285e+02,3.882922227647569571e+02,3.883444451226128535e+02,3.883288913302951642e+02,3.881788906521267108e+02,3.879377814398871465e+02,3.875077819824218750e+02,3.870477803548176894e+02,3.865566677517360858e+02,3.860355529785156250e+02,3.854711100260416856e+02,3.849522230360242929e+02,3.845322265625000000e+02,3.841500006781683965e+02,3.837566663953992929e+02,3.833977762858073106e+02,3.830899997287326642e+02,3.828522203233507071e+02,3.826133321126301894e+02,3.824277750651041856e+02,3.822233310275607892e+02,3.820811089409722285e+02,3.819322238498264142e+02,3.817911139594183965e+02,3.816466674804687500e+02,3.815277777777777715e+02,3.814255540635850821e+02,3.813488905164930429e+02,3.812533331976996465e+02,3.811733330620659785e+02,3.811055535210503535e+02,3.810288865831163321e+02,3.809766642252604356e+02,3.809211086697048358e+02,3.809055548773871465e+02,3.808844468858507071e+02,3.807688903808593750e+02,3.808177795410156250e+02,3.809711100260416856e+02,3.813655565049913321e+02,3.817311096191406250e+02,3.821466674804687500e+02,3.828122219509548358e+02,3.833777770996093750e+02,3.838588833279079608e+02,3.840499911838107892e+02,3.842877705891926894e+02,3.845333285861545392e+02,3.847966613769531250e+02,3.850688815646701642e+02,3.853655497233073106e+02,3.856822238498264142e+02,3.859888916015625000e+02,3.862566697862413321e+02,3.864777730305989394e+02,3.866822170681423358e+02,3.868599921332465215e+02,3.869999932183159785e+02,3.870955505371093750e+02,3.871988898383246465e+02,3.873055589463975821e+02,3.874322272406683965e+02,3.875722249348958144e+02,3.877555575900607892e+02,3.879755554199218750e+02,3.882177734375000000e+02,3.884722188313801894e+02,3.887366638183593750e+02,3.889866672092014142e+02,3.892288886176215215e+02,3.894455532497829608e+02,3.896477728949653283e+02,3.898288811577691035e+02,3.900288865831163321e+02,3.902422247992621465e+02,3.904611172146267108e+02,3.906744486490885606e+02,3.908733350965711679e+02,3.910788913302951642e+02,3.912622239854600821e+02,3.914511108398437500e+02,3.915911119249132071e+02,3.917122226291232892e+02,3.918144463433159785e+02,3.919199998643663321e+02,3.920411105685764142e+02,3.921877746582031250e+02,3.923411085340711679e+02,3.924555528428819571e+02,3.925377773708767108e+02,3.925299987792968750e+02,3.924766676161024179e+02,3.923533325195312500e+02,3.922544453938801894e+02,3.921766662597656250e+02,3.921600036621093750e+02,3.921777818467882071e+02,3.922322285970051894e+02,3.922833353678385606e+02,3.923611111111110858e+02,3.924422200520833144e+02,3.925222201877170392e+02,3.925866631401909785e+02,3.926466640896267108e+02,3.927088860405816035e+02,3.927733323838975821e+02,3.928322211371527715e+02,3.928811102973090215e+02,3.929133334689670392e+02,3.929266662597656250e+02,3.929544474283854356e+02
3.879599982367621465e+02,3.878366665310329608e+02,3.876000027126735858e+02,3.873988918728298358e+02,3.873300001356336679e+02,3.875077752007379104e+02,3.877499966091579608e+02,3.879944424099392108e+02,3.881466640896267108e+02,3.882655537923176894e+02,3.883077765570746465e+02,3.883266703287760606e+02,3.881733364529079608e+02,3.879100070529514142e+02,3.874200066460503535e+02,3.869355604383680429e+02,3.864377780490451642e+02,3.859399956597222285e+02,3.854277750651041856e+02,3.849500020345051894e+02,3.845477837456597285e+02,3.841566704644097285e+02,3.837633361816406250e+02,3.833900010850694571e+02,3.830600009494357892e+02,3.827944437662760606e+02,3.825611097547742929e+02,3.823933308919270644e+02,3.822344428168402715e+02,3.821177775065104356e+02,3.819900037977430429e+02,3.818588935004340215e+02,3.817433369954426894e+02,3.816411132812500000e+02,3.815411105685764142e+02,3.814399990505642108e+02,3.813466661241319571e+02,3.812799987792968750e+02,3.812188890245225821e+02,3.811411098904079608e+02,3.810711127387152715e+02,3.809977756076389142e+02,3.809655524359808965e+02,3.809422200520833144e+02,3.808466661241319571e+02,3.808322245279948106e+02,3.809588860405816035e+02,3.812899983723958144e+02,3.816455518934461679e+02,3.820211113823784785e+02,3.827388882107204608e+02,3.833655531141492929e+02,3.838833279079860858e+02,3.840311041937933965e+02,3.842311062282985858e+02,3.844611070421007071e+02,3.847422180175781250e+02,3.850666605631510606e+02,3.854233296712239394e+02,3.857844475640191035e+02,3.861022271050347285e+02,3.863677808973524179e+02,3.865899963378906250e+02,3.868033277723524179e+02,3.869955512152777715e+02,3.871499972873264142e+02,3.872622239854600821e+02,3.873566724989149179e+02,3.874300062391492929e+02,3.875144483778211679e+02,3.876099989149305429e+02,3.877499966091579608e+02,3.879199964735242929e+02,3.881166619194878535e+02,3.883333299424913321e+02,3.885677761501735858e+02,3.888011135525173358e+02,3.890344475640191035e+02,3.892488911946614394e+02,3.894488864474826642e+02,3.896366611056857892e+02,3.898399963378906250e+02,3.900588887532551894e+02,3.902766723632812500e+02,3.904866706000433965e+02,3.906844482421875000e+02,3.908766682942708144e+02,3.910511135525173927e+02,3.912188890245225821e+02,3.913588901095920392e+02,3.914655558268229356e+02,3.915433349609375000e+02,3.916200018988715215e+02,3.917322218153211679e+02,3.918811102973090215e+02,3.920233323838975821e+02,3.921188897026909785e+02,3.921855570475260606e+02,3.921722208658854356e+02,3.921233317057291856e+02,3.919988878038194571e+02,3.919011128743489394e+02,3.918288913302951642e+02,3.918333367241753535e+02,3.918811136881510606e+02,3.919733378092448106e+02,3.920711093478732892e+02,3.922133314344617929e+02,3.923566623263889142e+02,3.925033298068576642e+02,3.926211039225260606e+02,3.927288818359375000e+02,3.928222181532117929e+02,3.928977762858073106e+02,3.929744432237413321e+02,3.930466647677951642e+02,3.931233317057291856e+02,3.931777750651041856e+02,3.932266642252604356e+02
3.879277750651041856e+02,3.878377787272135606e+02,3.876611124674479356e+02,3.875088907877604356e+02,3.874611138237847285e+02,3.876022237141926894e+02,3.878155551486545392e+02,3.880366651746961679e+02,3.881655510796441035e+02,3.882477756076389142e+02,3.882666659884982892e+02,3.882788933648003535e+02,3.880655585394965215e+02,3.877577819824218750e+02,3.872200046115451642e+02,3.867666727701823106e+02,3.862944471571180429e+02,3.858677775065104356e+02,3.854222208658854356e+02,3.849966701931423358e+02,3.845988939073350821e+02,3.841933356391058965e+02,3.837955559624566035e+02,3.834133334689670392e+02,3.830788913302951642e+02,3.827911139594183965e+02,3.825566677517360858e+02,3.823877766927083144e+02,3.822455546061198106e+02,3.821411098904079608e+02,3.820411139594183965e+02,3.819266696506076642e+02,3.818322279188367929e+02,3.817333374023437500e+02,3.816355556911892108e+02,3.815233323838975821e+02,3.814244418674045392e+02,3.813577779134114394e+02,3.812777777777777715e+02,3.811922200520833144e+02,3.811111077202691035e+02,3.810622151692708144e+02,3.810133293999566035e+02,3.809944424099392108e+02,3.809166666666666856e+02,3.808533325195312500e+02,3.809522196451823106e+02,3.812199978298610858e+02,3.815933329264323106e+02,3.819266696506076642e+02,3.826522250705295392e+02,3.832666659884982892e+02,3.837955525716145644e+02,3.839122178819444571e+02,3.841166653103298358e+02,3.843522169325086679e+02,3.846666632758246465e+02,3.850344407823350821e+02,3.854300028483073106e+02,3.857944505479600821e+02,3.861155632866753535e+02,3.863833380805121465e+02,3.866288892957899179e+02,3.868544413248698106e+02,3.870744425455729356e+02,3.872422214084201642e+02,3.873577813042534785e+02,3.874411180284288321e+02,3.874900071885850821e+02,3.875533379448784785e+02,3.876300014919704608e+02,3.877333340115017108e+02,3.878600023057725821e+02,3.879977789984808965e+02,3.881666666666666856e+02,3.883611111111110858e+02,3.885777791341145644e+02,3.887922261555989394e+02,3.889955579969617929e+02,3.891755540635850821e+02,3.893677741156683965e+02,3.895655551486545392e+02,3.897788899739583144e+02,3.899911126030816035e+02,3.901933322482639142e+02,3.903955552842882071e+02,3.905833333333333144e+02,3.907599995930989394e+02,3.909088880750868498e+02,3.910433315700954608e+02,3.911444430881076642e+02,3.912311096191406250e+02,3.912966681586371465e+02,3.914044426812066035e+02,3.915388861762152715e+02,3.916666632758246465e+02,3.917433336046007071e+02,3.917833353678385606e+02,3.917777777777777715e+02,3.917400004069010606e+02,3.916688910590277715e+02,3.915833367241753535e+02,3.915666673448350821e+02,3.915899997287326642e+02,3.916911112467448106e+02,3.917988925509982892e+02,3.919422200520833144e+02,3.921299981011284785e+02,3.923311089409722285e+02,3.925244445800781250e+02,3.926777750651041856e+02,3.928066643608941035e+02,3.929122212727864394e+02,3.929944458007812500e+02,3.930733337402343750e+02,3.931600002712673358e+02,3.932522210015191035e+02,3.933288879394531250e+02,3.933744439019097285e+02
3.879100002712673358e+02,3.878944430881076642e+02,3.877977769639757071e+02,3.877077772352430429e+02,3.876588914659288321e+02,3.877544453938801894e+02,3.879133334689670392e+02,3.880999993218316035e+02,3.882011074490017108e+02,3.882544420030382071e+02,3.882588873969183965e+02,3.882700025770399179e+02,3.880044453938801894e+02,3.876377766927083144e+02,3.870633307562933965e+02,3.866377766927083144e+02,3.862022230360242929e+02,3.858277791341145644e+02,3.854522230360242929e+02,3.850766703287760606e+02,3.846888936360676894e+02,3.842711147732204608e+02,3.838688930935329608e+02,3.834833374023437500e+02,3.831511162651909785e+02,3.828588935004340215e+02,3.826133388943142108e+02,3.824366692437066035e+02,3.822944471571180429e+02,3.821911112467448106e+02,3.820944485134548358e+02,3.819877827962239394e+02,3.819044528537326642e+02,3.818111199273003535e+02,3.817188924153645644e+02,3.816077779134114394e+02,3.815044420030382071e+02,3.814188876681857892e+02,3.813211093478732892e+02,3.812233310275607892e+02,3.811311069064670392e+02,3.810844387478298358e+02,3.810444403754340215e+02,3.810333319769965215e+02,3.810299987792968750e+02,3.809411078559027715e+02,3.810244411892360858e+02,3.812099982367621465e+02,3.815688883463541856e+02,3.818688897026909785e+02,3.825488891601562500e+02,3.831499972873264142e+02,3.836777750651041856e+02,3.838022189670139142e+02,3.840133361816406250e+02,3.842744411892360858e+02,3.846355556911892108e+02,3.850722181532117929e+02,3.855233357747395644e+02,3.859211120605468750e+02,3.862544487847222285e+02,3.865311109754774179e+02,3.867944437662760606e+02,3.870322197808159785e+02,3.872733323838975821e+02,3.874377780490451642e+02,3.875444471571180429e+02,3.876044514973958144e+02,3.876400078667534785e+02,3.876855604383680429e+02,3.877455579969617929e+02,3.878188917371961679e+02,3.879222276475694571e+02,3.880266723632812500e+02,3.881655578613281250e+02,3.883177795410156250e+02,3.885066697862413321e+02,3.887000020345051894e+02,3.888900010850694571e+02,3.890566609700520644e+02,3.892444390190972285e+02,3.894366624620225821e+02,3.896488884819878535e+02,3.898411119249132071e+02,3.900266689724392108e+02,3.902155592176649179e+02,3.904055582682291856e+02,3.905888875325520644e+02,3.907399970160590215e+02,3.908766615125867929e+02,3.909722154405382071e+02,3.910488823784722285e+02,3.910999993218316035e+02,3.911877780490451642e+02,3.912933349609375000e+02,3.913955552842882071e+02,3.914622226291232892e+02,3.915066630045573106e+02,3.915133260091145644e+02,3.915077718098958144e+02,3.914688890245225821e+02,3.914188910590277715e+02,3.914155578613281250e+02,3.914666646321614962e+02,3.915911085340712248e+02,3.917322184244791856e+02,3.919055480957031250e+02,3.921255493164062500e+02,3.923566623263889142e+02,3.925777757432725821e+02,3.927655537923176894e+02,3.929322204589843750e+02,3.930711127387152715e+02,3.931733364529079608e+02,3.932744445800781250e+02,3.933811102973090215e+02,3.934899970160590215e+02,3.935733337402343750e+02,3.936288892957899179e+02
3.880466647677951642e+02,3.880933295355902715e+02,3.880644429524739394e+02,3.880033365885416856e+02,3.879388936360676894e+02,3.879744500054253535e+02,3.880944485134548358e+02,3.882522243923610858e+02,3.883544413248698106e+02,3.883933275010850821e+02,3.883822191026475821e+02,3.883066677517360858e+02,3.880188903808593750e+02,3.876422186957465215e+02,3.871266615125867929e+02,3.867311096191406250e+02,3.863366699218750000e+02,3.860055609809027715e+02,3.856411166720920392e+02,3.852577819824218750e+02,3.848455573187933965e+02,3.844022216796875000e+02,3.839722222222222285e+02,3.835744459364149179e+02,3.832466668023003535e+02,3.829544474283854356e+02,3.826955600314670392e+02,3.825000033908420392e+02,3.823511115180121465e+02,3.822699991861979356e+02,3.821900024414062500e+02,3.820922275119357892e+02,3.819977857801649179e+02,3.818944532606336679e+02,3.818177829318576642e+02,3.817211134168836679e+02,3.816366644965277715e+02,3.815433315700954608e+02,3.814388834635416856e+02,3.813299967447916856e+02,3.812244364420573106e+02,3.811666598849826642e+02,3.811211073133680998e+02,3.810944451226128535e+02,3.810811123318142108e+02,3.810088873969183965e+02,3.810555555555555429e+02,3.812355584038628535e+02,3.815544467502170392e+02,3.818555569118923358e+02,3.824877760145399179e+02,3.830499979654948106e+02,3.835811089409722285e+02,3.837188856336805429e+02,3.839499986436632071e+02,3.842244398328992929e+02,3.846033325195312500e+02,3.850455525716145644e+02,3.854955579969617929e+02,3.859022216796875000e+02,3.862622239854600821e+02,3.865744425455729356e+02,3.868677775065104356e+02,3.871411098904079608e+02,3.874177754720051894e+02,3.876155531141492929e+02,3.877399970160590215e+02,3.878077799479166856e+02,3.878511149088541856e+02,3.878955620659722285e+02,3.879488932291666856e+02,3.880111151801215215e+02,3.881000027126735858e+02,3.881900024414062500e+02,3.882977803548176894e+02,3.884100036621093750e+02,3.885622253417968750e+02,3.887277798122829608e+02,3.888977762858073106e+02,3.890488857693142108e+02,3.892166646321614394e+02,3.894033338758680429e+02,3.896000027126735858e+02,3.897822231716579608e+02,3.899477810329860858e+02,3.901144476996527715e+02,3.902955593532985858e+02,3.904655558268229356e+02,3.906155531141492929e+02,3.907266608344183965e+02,3.908122151692708144e+02,3.908755527072482892e+02,3.909299994574652715e+02,3.910044453938801894e+02,3.910999993218316035e+02,3.912044440375433965e+02,3.912922227647569571e+02,3.913622199164496465e+02,3.913977728949652715e+02,3.914177720811632071e+02,3.914022216796875000e+02,3.913677775065104356e+02,3.913766649034288321e+02,3.914433288574219318e+02,3.915844421386719887e+02,3.917333306206597285e+02,3.919044392903645644e+02,3.921011047363281250e+02,3.923199971516926894e+02,3.925399983723958712e+02,3.927488911946614394e+02,3.929466688368055429e+02,3.931244472927517108e+02,3.932755567762586679e+02,3.934122212727864394e+02,3.935455559624566035e+02,3.936788906521267108e+02,3.937977837456597285e+02,3.938888956705729356e+02
3.882255554199218750e+02,3.883244425455729356e+02,3.883566657172308965e+02,3.883277791341145644e+02,3.882411126030816035e+02,3.882244466145833144e+02,3.882977803548176894e+02,3.884477810329860858e+02,3.885544433593750000e+02,3.885966593424479356e+02,3.885644361707899179e+02,3.884711066351996465e+02,3.882311096191406250e+02,3.879055514865451642e+02,3.874399956597222285e+02,3.870377739800347285e+02,3.866455552842882071e+02,3.863066677517360858e+02,3.859166700575086679e+02,3.854922247992621465e+02,3.850333353678385606e+02,3.845555589463975821e+02,3.840877821180555429e+02,3.836800028483073106e+02,3.833399997287326642e+02,3.830555555555555429e+02,3.827988925509982892e+02,3.825988905164930429e+02,3.824611104329426894e+02,3.823922186957465215e+02,3.823211093478732892e+02,3.822166680230034785e+02,3.821111145019531250e+02,3.820111151801215215e+02,3.819433356391058965e+02,3.818622233072916856e+02,3.817866651746961679e+02,3.816999986436632071e+02,3.815955505371094318e+02,3.814866638183593750e+02,3.813666619194878535e+02,3.812844407823350821e+02,3.812244432237413321e+02,3.811711120605468750e+02,3.811577792697482892e+02,3.811166687011718750e+02,3.811255560980902715e+02,3.812788933648003535e+02,3.815255567762586679e+02,3.818244459364149179e+02,3.824244418674045392e+02,3.829644436306423358e+02,3.835044420030382071e+02,3.836555514865451642e+02,3.838933275010850821e+02,3.841588846842448106e+02,3.845188869900173358e+02,3.849444410536024179e+02,3.853944430881076642e+02,3.858233303493923358e+02,3.862166646321614394e+02,3.865622185601128535e+02,3.868699985080295392e+02,3.871644422743055429e+02,3.874555528428819571e+02,3.876899956597222285e+02,3.878566623263889142e+02,3.879566650390625000e+02,3.880300021701389142e+02,3.880888943142360858e+02,3.881588914659288321e+02,3.882311096191406250e+02,3.883244425455729356e+02,3.884144422743055429e+02,3.885033331976996465e+02,3.885922207302517108e+02,3.887033318413628535e+02,3.888388875325520644e+02,3.889744432237413321e+02,3.891122233072916856e+02,3.892599995930989394e+02,3.894288872612847285e+02,3.896133321126301894e+02,3.897822231716579608e+02,3.899388936360676894e+02,3.900811157226562500e+02,3.902388916015625000e+02,3.903755560980902715e+02,3.904955512152777715e+02,3.905733269585503535e+02,3.906322157118055429e+02,3.906833326551649179e+02,3.907488878038194571e+02,3.908477783203125000e+02,3.909655558268229356e+02,3.910944485134548358e+02,3.912077806260850821e+02,3.913122219509548358e+02,3.913744405110676894e+02,3.914255506727430429e+02,3.914244418674045392e+02,3.914166666666666856e+02,3.914411112467448106e+02,3.915299987792968750e+02,3.916766662597656818e+02,3.918188849555121465e+02,3.919633280436198106e+02,3.921155497233073106e+02,3.922922193739149179e+02,3.924855516221788321e+02,3.926899990505642108e+02,3.928966674804687500e+02,3.930955607096354356e+02,3.932811143663194571e+02,3.934555562337239394e+02,3.936300014919704608e+02,3.937966681586371465e+02,3.939444512261284785e+02,3.940677829318576642e+02
3.883966640896267108e+02,3.885111117892795392e+02,3.886022237141926894e+02,3.886122266981336679e+02,3.885344475640191035e+02,3.884844462076823106e+02,3.885366685655382071e+02,3.886799994574652715e+02,3.887888861762152715e+02,3.888133273654514142e+02,3.887566630045573106e+02,3.886222229003906250e+02,3.884344448513454608e+02,3.881611090766058965e+02,3.877844441731770644e+02,3.873944430881076642e+02,3.870077785915798358e+02,3.866511094835069571e+02,3.862266676161024179e+02,3.857744445800781250e+02,3.852544453938801894e+02,3.847300042046441035e+02,3.842277832031250000e+02,3.838177795410156250e+02,3.834722222222222285e+02,3.831833326551649179e+02,3.829333360460069571e+02,3.827311096191406250e+02,3.825844421386718750e+02,3.825144382052951642e+02,3.824588860405816035e+02,3.823677775065104356e+02,3.822644483778211679e+02,3.821500040690104356e+02,3.820911119249132071e+02,3.820266689724392108e+02,3.819766676161024179e+02,3.818988918728298358e+02,3.817911105685764142e+02,3.816766662597656250e+02,3.815477769639757071e+02,3.814555528428819571e+02,3.813733317057291856e+02,3.812899983723958144e+02,3.812411092122395644e+02,3.811822204589843750e+02,3.811377733018663321e+02,3.812800021701389142e+02,3.815111117892795392e+02,3.818233337402343750e+02,3.824055514865451642e+02,3.829333326551649179e+02,3.834744432237413321e+02,3.836277737087673358e+02,3.838644341362847285e+02,3.841211039225260606e+02,3.844744398328992929e+02,3.848855523003472285e+02,3.853311089409722285e+02,3.857599995930989394e+02,3.861577792697482892e+02,3.865088907877604356e+02,3.868144463433159785e+02,3.871133321126301894e+02,3.874144422743055429e+02,3.876833292643229925e+02,3.878899976942274179e+02,3.880277743869357892e+02,3.881366644965277715e+02,3.882288920084635606e+02,3.883322245279948106e+02,3.884266662597656250e+02,3.885411071777343750e+02,3.886522182888454608e+02,3.887488878038194571e+02,3.888411085340711679e+02,3.889311082628038321e+02,3.890433315700954608e+02,3.891488884819878535e+02,3.892744479709201642e+02,3.894111124674479356e+02,3.895700005425347285e+02,3.897388882107204608e+02,3.898955586751301894e+02,3.900355597601996465e+02,3.901522250705295392e+02,3.902711113823784785e+02,3.903544447157117929e+02,3.904255540635850821e+02,3.904577738444010606e+02,3.904866638183593750e+02,3.905233357747395644e+02,3.905988905164930429e+02,3.907177802191840215e+02,3.908677775065104356e+02,3.910255601671007071e+02,3.911788906521267108e+02,3.913100009494357892e+02,3.914144422743055429e+02,3.914955546061198106e+02,3.915299987792968750e+02,3.915522223578558965e+02,3.916066657172308965e+02,3.917000020345051894e+02,3.918388909233941035e+02,3.919611104329426894e+02,3.920777757432725821e+02,3.921788872612847285e+02,3.923011135525173358e+02,3.924588894314235858e+02,3.926444464789496465e+02,3.928455573187933965e+02,3.930433383517795392e+02,3.932433369954426894e+02,3.934411146375867929e+02,3.936477796766492929e+02,3.938444451226128535e+02,3.940277811686198106e+02,3.941777784559461679e+02
3.884922214084201642e+02,3.886011149088541856e+02,3.887366706000433965e+02,3.887955593532985858e+02,3.887677815755208144e+02,3.887466668023003535e+02,3.887988891601562500e+02,3.889266628689235858e+02,3.889822184244792425e+02,3.889666612413194571e+02,3.888666619194878535e+02,3.887355550130208144e+02,3.885711093478732892e+02,3.883488871256510606e+02,3.880333319769965215e+02,3.876811082628038321e+02,3.872911105685764142e+02,3.869066636827257071e+02,3.864499986436632071e+02,3.859677768283420392e+02,3.854011128743489394e+02,3.848588935004340215e+02,3.843555603027343750e+02,3.839666680230034785e+02,3.836222262912326642e+02,3.833433363172742929e+02,3.830966729058159785e+02,3.828977796766492929e+02,3.827355584038628535e+02,3.826533304850260606e+02,3.825966627332899179e+02,3.825177747938367929e+02,3.824177788628472285e+02,3.823088921440972285e+02,3.822588873969183965e+02,3.822222222222222285e+02,3.821899990505642108e+02,3.821333380805121465e+02,3.820277811686198106e+02,3.819277818467882071e+02,3.818011135525173358e+02,3.816888902452257071e+02,3.815611097547742929e+02,3.814333326551649179e+02,3.813611077202691035e+02,3.812633327907985858e+02,3.811799960666232892e+02,3.812955593532985858e+02,3.815222235785590215e+02,3.818244459364149179e+02,3.823655531141492929e+02,3.828855556911892108e+02,3.834266662597656250e+02,3.836099955240885606e+02,3.838544379340277715e+02,3.841099955240885606e+02,3.844422200520833144e+02,3.848211093478732892e+02,3.852444424099392108e+02,3.856600002712673358e+02,3.860377773708767108e+02,3.863688897026909785e+02,3.866566670735676894e+02,3.869533318413628535e+02,3.872566630045573106e+02,3.875488857693142108e+02,3.877855563693576642e+02,3.879588894314235858e+02,3.880977783203125000e+02,3.882222256130642108e+02,3.883622266981336679e+02,3.884900037977430429e+02,3.886400010850694571e+02,3.887877773708767108e+02,3.889288872612847285e+02,3.890566643608941035e+02,3.891699998643663321e+02,3.892788899739583144e+02,3.893733350965711679e+02,3.894777798122829608e+02,3.895988871256510606e+02,3.897299974229600821e+02,3.898744405110676894e+02,3.900000000000000000e+02,3.901111111111110858e+02,3.902066650390625000e+02,3.902899983723958144e+02,3.903233337402343750e+02,3.903233337402343750e+02,3.902988857693142108e+02,3.902966613769531250e+02,3.903277757432725821e+02,3.904199998643663321e+02,3.905700005425347285e+02,3.907466668023003535e+02,3.909355604383680429e+02,3.911133355034722285e+02,3.912711113823784785e+02,3.913977728949652715e+02,3.915033331976996465e+02,3.915766669379340215e+02,3.916344468858507071e+02,3.917100016276041856e+02,3.918033379448784785e+02,3.919255574544270644e+02,3.920333319769965215e+02,3.921322191026475821e+02,3.922200012207031250e+02,3.923200039333767108e+02,3.924444478352864394e+02,3.925955573187933965e+02,3.927566697862413321e+02,3.929322272406683965e+02,3.931277838812933965e+02,3.933466695149739394e+02,3.935833333333333144e+02,3.937822197808159785e+02,3.939677768283420392e+02,3.941277770996093750e+02
3.885499979654948106e+02,3.886188897026909785e+02,3.887777811686198106e+02,3.888911132812500000e+02,3.889466688368055429e+02,3.889788886176215215e+02,3.890533345540364394e+02,3.891566636827257639e+02,3.891588880750867929e+02,3.890922207302517108e+02,3.889499986436632071e+02,3.887899983723958144e+02,3.886122199164496465e+02,3.884022216796875000e+02,3.881544460720485858e+02,3.878555569118923358e+02,3.875066697862413321e+02,3.871033325195312500e+02,3.866344434950087248e+02,3.861099989149305429e+02,3.855211113823784785e+02,3.849588894314236427e+02,3.844888882107204608e+02,3.841288892957899179e+02,3.838088921440972285e+02,3.835288933648003535e+02,3.832722269694010038e+02,3.830777791341145644e+02,3.828966674804687500e+02,3.828055521647135606e+02,3.827344428168402715e+02,3.826677788628472285e+02,3.825811157226562500e+02,3.824844495985242929e+02,3.824488898383246465e+02,3.824311116536458144e+02,3.824177754720051894e+02,3.823855556911892108e+02,3.823055555555555429e+02,3.822111138237847285e+02,3.820755581325954608e+02,3.819266696506076642e+02,3.817666659884982892e+02,3.815933329264323106e+02,3.814933302137586679e+02,3.813455539279514142e+02,3.812599962022569571e+02,3.813500027126735858e+02,3.815855577256944571e+02,3.818566691080729356e+02,3.823711107042100821e+02,3.828755560980902715e+02,3.834055548773871465e+02,3.835933295355902715e+02,3.838355509440104356e+02,3.840911085340711679e+02,3.844077758789062500e+02,3.847522210015191035e+02,3.851422220865885606e+02,3.855177815755208144e+02,3.858655598958333144e+02,3.861555582682291856e+02,3.864199998643663321e+02,3.866922200520833144e+02,3.869944390190972285e+02,3.873033311631944571e+02,3.875688917371961679e+02,3.877744479709201642e+02,3.879411112467448106e+02,3.880999993218316035e+02,3.882644483778211679e+02,3.884277852376301894e+02,3.886077813042534785e+02,3.888077799479166856e+02,3.890000000000000000e+02,3.891711120605468750e+02,3.893144463433159785e+02,3.894311116536458144e+02,3.895377807617187500e+02,3.896322224934895644e+02,3.897433336046007071e+02,3.898477783203125000e+02,3.899522230360242929e+02,3.900344475640191035e+02,3.901066657172308965e+02,3.901922200520833144e+02,3.902511088053385606e+02,3.902566663953992929e+02,3.902100016276041856e+02,3.901399976942274179e+02,3.901011081271701642e+02,3.901222195095485858e+02,3.902311096191406250e+02,3.903977762858073106e+02,3.905811089409722285e+02,3.907788899739583144e+02,3.909777764214409785e+02,3.911555514865451642e+02,3.913088819715711679e+02,3.914288872612847285e+02,3.915255567762586679e+02,3.915988905164930429e+02,3.916800028483073106e+02,3.917755601671007071e+02,3.918888922797308965e+02,3.919933336046007071e+02,3.920855543348524179e+02,3.921600002712673358e+02,3.922455579969617929e+02,3.923488939073350821e+02,3.924800042046441035e+02,3.926200018988715215e+02,3.927811109754774179e+02,3.929688890245225821e+02,3.931966654459635606e+02,3.934299960666232892e+02,3.936388854980468750e+02,3.938311089409722285e+02,3.940166659884982892e+02
3.885577799479166856e+02,3.885933363172742929e+02,3.887411126030816035e+02,3.889022216796875000e+02,3.890466681586371465e+02,3.891600036621093750e+02,3.892577819824218750e+02,3.893266669379340215e+02,3.892777777777777715e+02,3.891822204589843750e+02,3.890322197808159785e+02,3.888599955240885606e+02,3.886655510796441035e+02,3.884566650390625000e+02,3.882466668023003535e+02,3.879800008138020644e+02,3.876555548773871465e+02,3.872455546061198106e+02,3.867655537923176894e+02,3.861955566406250000e+02,3.856044447157117929e+02,3.850533345540364394e+02,3.846211107042100821e+02,3.842877807617187500e+02,3.839922247992621465e+02,3.837222256130642108e+02,3.834588928222656250e+02,3.832633361816406250e+02,3.830933363172742929e+02,3.829977756076389142e+02,3.829100002712673358e+02,3.828322245279948106e+02,3.827477823893229356e+02,3.826655612521701642e+02,3.826322224934895644e+02,3.826166653103298358e+02,3.826133287217882071e+02,3.826177775065104356e+02,3.825877787272135606e+02,3.825177815755208144e+02,3.823788926866319571e+02,3.821944478352864394e+02,3.819933336046007071e+02,3.817588873969183965e+02,3.816244439019097285e+02,3.814344448513454608e+02,3.813733317057291856e+02,3.814244452582465215e+02,3.816488884819878535e+02,3.818677808973524179e+02,3.823522237141926894e+02,3.828355577256944002e+02,3.833455539279514142e+02,3.835477735731336679e+02,3.837955525716145644e+02,3.840611097547742929e+02,3.843599989149305429e+02,3.846677788628472285e+02,3.850133361816406250e+02,3.853411153157551894e+02,3.856455586751301894e+02,3.858888888888889142e+02,3.861277770996093750e+02,3.863855523003472285e+02,3.866922166612413321e+02,3.870111083984375000e+02,3.872866685655382071e+02,3.875011155870225821e+02,3.876766696506076642e+02,3.878566657172308965e+02,3.880400017632378535e+02,3.882533365885416856e+02,3.884722256130642108e+02,3.887144470214843750e+02,3.889411112467448106e+02,3.891444464789496465e+02,3.893133341471354356e+02,3.894366692437066035e+02,3.895477803548176894e+02,3.896488918728298358e+02,3.897500033908420392e+02,3.898322245279948106e+02,3.898922220865885606e+02,3.899377746582031250e+02,3.899944390190972285e+02,3.900822177463107892e+02,3.901455518934461679e+02,3.901455552842882071e+02,3.900766669379340215e+02,3.899644436306423358e+02,3.898855523003472285e+02,3.898933308919270644e+02,3.900177747938367929e+02,3.902044406467014142e+02,3.904044392903645644e+02,3.906066657172308965e+02,3.908055555555555429e+02,3.909800008138020644e+02,3.911377733018663321e+02,3.912655537923176894e+02,3.913699985080295392e+02,3.914500020345051894e+02,3.915344475640191035e+02,3.916377800835503535e+02,3.917566663953992929e+02,3.918655531141492929e+02,3.919555528428819571e+02,3.920233323838975821e+02,3.921022237141926894e+02,3.921911146375867929e+02,3.923055589463975821e+02,3.924411112467448106e+02,3.925977749294704608e+02,3.927899949815538321e+02,3.929966600206163321e+02,3.932166612413194571e+02,3.934144422743055429e+02,3.936122199164496465e+02,3.938133341471354356e+02
3.885722215440538321e+02,3.885722215440538321e+02,3.887011108398437500e+02,3.889033338758680429e+02,3.891122266981336679e+02,3.892966715494791856e+02,3.894155612521701642e+02,3.894600016276041856e+02,3.893766682942708144e+02,3.892455546061198106e+02,3.890999993218316035e+02,3.889299960666232892e+02,3.887344394259982892e+02,3.885222201877170392e+02,3.883222249348958144e+02,3.880700039333767108e+02,3.877544453938801894e+02,3.873133341471354356e+02,3.868133341471354356e+02,3.862322252061632071e+02,3.856944444444445139e+02,3.851944444444444571e+02,3.848166673448350821e+02,3.845022277832031250e+02,3.842133382161458144e+02,3.839311150444878535e+02,3.836588914659288321e+02,3.834644436306423358e+02,3.833099975585937500e+02,3.832111036512586679e+02,3.831188863118489394e+02,3.830211113823784785e+02,3.829488932291666856e+02,3.828811170789930429e+02,3.828488905164930429e+02,3.828233337402343750e+02,3.828077765570746465e+02,3.828222249348958144e+02,3.828100009494357892e+02,3.827522210015191035e+02,3.826077779134114394e+02,3.824000006781683965e+02,3.821722242567274179e+02,3.819144422743055429e+02,3.817599995930989394e+02,3.815499979654948106e+02,3.814999966091579608e+02,3.815055541992187500e+02,3.816977776421441035e+02,3.818644476996527715e+02,3.823255581325954608e+02,3.827766689724392108e+02,3.832633327907985858e+02,3.834688856336805429e+02,3.837233310275607892e+02,3.839822218153211679e+02,3.842733323838975821e+02,3.845622219509548358e+02,3.848644443088107892e+02,3.851366678873698106e+02,3.853844468858507071e+02,3.855855543348524179e+02,3.857888861762152715e+02,3.860166625976562500e+02,3.863033311631944571e+02,3.866011115180121465e+02,3.868688897026909785e+02,3.870755581325954608e+02,3.872766655815972285e+02,3.874811062282985858e+02,3.877022196451823106e+02,3.879488898383246465e+02,3.882100016276041856e+02,3.884866672092014142e+02,3.887311096191406250e+02,3.889499986436632071e+02,3.891222195095485858e+02,3.892433336046007071e+02,3.893477817111545392e+02,3.894522264268663321e+02,3.895544501410590215e+02,3.896288926866319571e+02,3.896677788628472285e+02,3.896955532497829608e+02,3.897488844129774179e+02,3.898411085340711679e+02,3.899144422743055429e+02,3.899244452582465215e+02,3.898666687011718750e+02,3.897655571831597285e+02,3.896922234429252967e+02,3.897044440375433965e+02,3.898244425455729356e+02,3.900066630045573106e+02,3.902055528428819571e+02,3.904044426812066035e+02,3.905855543348524179e+02,3.907544453938801894e+02,3.909188876681857892e+02,3.910666673448350821e+02,3.911688876681857892e+02,3.912477789984808965e+02,3.913333367241753535e+02,3.914477776421441035e+02,3.915788879394531250e+02,3.916911078559027715e+02,3.917833319769965215e+02,3.918366665310329608e+02,3.919044460720485858e+02,3.919844462076823106e+02,3.920999993218316035e+02,3.922366638183593750e+02,3.923955518934461679e+02,3.925755513509114394e+02,3.927599962022569571e+02,3.929433322482639142e+02,3.931511128743489394e+02,3.933688897026909785e+02,3.936088901095920392e+02
3.885988905164930429e+02,3.885866665310329608e+02,3.887000020345051894e+02,3.889200032552083144e+02,3.891733398437500000e+02,3.893955620659722285e+02,3.895133395724826642e+02,3.895266689724392108e+02,3.894100002712673358e+02,3.892588873969183965e+02,3.891222229003906250e+02,3.889666646321614394e+02,3.887822163899739394e+02,3.885855509440104356e+02,3.884044426812066035e+02,3.881644456651475821e+02,3.878377787272135606e+02,3.873777804904514142e+02,3.868511115180121465e+02,3.862844441731770644e+02,3.858011067708333144e+02,3.853788859049479356e+02,3.850477769639757071e+02,3.847477823893229356e+02,3.844600050184461679e+02,3.841633368598090215e+02,3.838866678873698106e+02,3.836911112467448106e+02,3.835466681586371465e+02,3.834499986436632071e+02,3.833566657172308965e+02,3.832566663953992929e+02,3.831800028483073106e+02,3.831088935004340215e+02,3.830688883463541856e+02,3.830255533854166856e+02,3.829988878038194571e+02,3.829977823893229356e+02,3.829833374023437500e+02,3.829266696506076642e+02,3.827866685655382071e+02,3.825722249348958144e+02,3.823211127387152715e+02,3.820488857693142108e+02,3.818811102973090215e+02,3.816744418674045392e+02,3.815788879394531250e+02,3.815511101616753535e+02,3.816977776421441035e+02,3.818666687011718750e+02,3.822966681586371465e+02,3.827133348253038321e+02,3.831644456651475821e+02,3.833622199164496465e+02,3.836066691080729356e+02,3.838566691080729356e+02,3.841344468858507071e+02,3.844044460720485858e+02,3.846677788628472285e+02,3.848900010850694571e+02,3.850800001356336679e+02,3.852399970160590215e+02,3.854088880750867929e+02,3.856155531141492929e+02,3.858677775065104356e+02,3.861311102973090215e+02,3.863633321126301894e+02,3.865533345540364394e+02,3.867611117892795392e+02,3.869833340115017108e+02,3.872400004069010606e+02,3.875188903808593750e+02,3.878255581325954608e+02,3.881233350965711679e+02,3.883911098904079608e+02,3.886244439019097285e+02,3.888122219509548358e+02,3.889244486490885606e+02,3.890166693793402715e+02,3.891211140950520644e+02,3.892355584038628535e+02,3.893122253417968750e+02,3.893366665310329608e+02,3.893566623263889142e+02,3.894033270941840215e+02,3.894966634114583144e+02,3.895711093478732892e+02,3.896011149088541856e+02,3.895844455295139142e+02,3.895322231716579608e+02,3.895133293999566035e+02,3.895444403754340215e+02,3.896588846842448106e+02,3.898111063639323106e+02,3.899877760145399179e+02,3.901733330620659785e+02,3.903433363172742929e+02,3.905066731770833144e+02,3.906677822536892108e+02,3.908222249348958144e+02,3.909322204589843750e+02,3.910144449869791856e+02,3.910966695149739394e+02,3.912111104329426894e+02,3.913466627332899179e+02,3.914722154405382071e+02,3.915799967447916856e+02,3.916555548773871465e+02,3.917466701931423358e+02,3.918355577256944571e+02,3.919533352322048358e+02,3.920855543348524179e+02,3.922399970160590215e+02,3.923999938964843750e+02,3.925511067708333144e+02,3.927111104329426894e+02,3.929077792697482892e+02,3.931299981011284785e+02,3.933733317057291856e+02
3.886744418674045392e+02,3.886488850911458144e+02,3.887511121961805429e+02,3.889688890245225821e+02,3.892344462076823106e+02,3.894677768283420392e+02,3.895755547417534785e+02,3.895733303493923358e+02,3.894311082628038321e+02,3.892455546061198106e+02,3.890788879394531250e+02,3.889188876681857892e+02,3.887566596137152715e+02,3.886022169325086679e+02,3.884511074490017108e+02,3.882477789984808965e+02,3.879377814398871465e+02,3.874900037977430429e+02,3.869622260199652715e+02,3.864033338758680429e+02,3.859677734375000000e+02,3.856044379340277715e+02,3.853288845486110858e+02,3.850355563693576642e+02,3.847333374023437500e+02,3.844166700575086679e+02,3.841455552842882071e+02,3.839588860405816035e+02,3.838211093478732892e+02,3.837033318413628535e+02,3.836055535210503535e+02,3.835033331976996465e+02,3.834333360460069571e+02,3.833644476996527715e+02,3.833244425455729356e+02,3.832722201877170392e+02,3.832177768283420392e+02,3.831744486490885606e+02,3.831133355034722285e+02,3.830322231716579608e+02,3.828766649034288321e+02,3.826622212727864394e+02,3.824122212727864394e+02,3.821611090766058965e+02,3.819944424099392108e+02,3.817966647677951642e+02,3.816244439019097285e+02,3.815833333333333144e+02,3.817011108398437500e+02,3.819044426812066035e+02,3.823055555555555429e+02,3.826677788628472285e+02,3.830900031195746465e+02,3.832599995930989394e+02,3.834822252061632071e+02,3.836944478352864394e+02,3.839377814398871465e+02,3.841844448513454608e+02,3.844144422743055429e+02,3.845977749294704608e+02,3.847477756076389142e+02,3.848777770996093750e+02,3.850277777777777715e+02,3.852155558268229356e+02,3.854299994574652715e+02,3.856511128743489394e+02,3.858455539279514142e+02,3.860133361816406250e+02,3.862222222222222285e+02,3.864488932291666856e+02,3.867244466145833144e+02,3.870022277832031250e+02,3.873177829318576642e+02,3.876344502766926894e+02,3.879277784559461679e+02,3.881844448513454608e+02,3.883855556911892108e+02,3.885144483778211679e+02,3.886188897026909785e+02,3.887277764214409785e+02,3.888477749294704608e+02,3.889255540635850821e+02,3.889511074490017108e+02,3.889566616482204608e+02,3.889844394259982892e+02,3.890633307562933965e+02,3.891355556911892108e+02,3.891844482421875000e+02,3.892222256130642108e+02,3.892644449869791856e+02,3.893311089409722285e+02,3.894011060926649179e+02,3.895022210015191035e+02,3.896377766927083144e+02,3.897855597601996465e+02,3.899588894314235858e+02,3.901088901095920392e+02,3.902722235785590215e+02,3.904266696506076642e+02,3.905811123318142108e+02,3.906899990505642108e+02,3.907777777777777715e+02,3.908688897026909785e+02,3.909911092122395644e+02,3.911288859049479356e+02,3.912655504014757071e+02,3.913966640896267108e+02,3.915133293999566035e+02,3.916300014919704608e+02,3.917477789984808965e+02,3.918722262912326642e+02,3.920099995930989394e+02,3.921488884819878535e+02,3.922844407823350821e+02,3.924122212727864394e+02,3.925455559624566035e+02,3.927344462076823106e+02,3.929499986436632071e+02,3.931988864474826642e+02
3.887533331976996465e+02,3.887400004069010606e+02,3.888455573187933965e+02,3.890444403754340215e+02,3.892777743869357892e+02,3.894666646321614394e+02,3.895555555555555429e+02,3.895477769639757071e+02,3.893988850911458144e+02,3.891977776421441035e+02,3.890122205946180429e+02,3.888422207302517108e+02,3.886899922688801894e+02,3.885588819715712248e+02,3.884577738444010606e+02,3.883055555555555429e+02,3.880555589463975821e+02,3.876666700575086679e+02,3.871733364529079608e+02,3.866255560980902715e+02,3.862377726236979356e+02,3.859211052788628535e+02,3.856877712673610858e+02,3.853699985080295392e+02,3.850433349609375000e+02,3.847244466145833144e+02,3.844522196451823106e+02,3.842733289930555429e+02,3.841277770996093750e+02,3.840055575900607892e+02,3.839111124674479356e+02,3.838188917371961679e+02,3.837411159939235858e+02,3.836500040690104356e+02,3.835911085340711679e+02,3.835066630045573106e+02,3.834144422743055429e+02,3.833166673448350821e+02,3.832300008138020644e+02,3.831222229003906250e+02,3.829600016276041856e+02,3.827522243923610858e+02,3.825211113823784785e+02,3.822944437662760606e+02,3.821244439019097285e+02,3.819377780490451642e+02,3.816966688368055429e+02,3.816477796766492929e+02,3.817488911946614394e+02,3.819888882107204608e+02,3.823633321126301894e+02,3.826955532497829608e+02,3.830744425455729356e+02,3.832077738444010606e+02,3.833722229003906250e+02,3.835411139594183965e+02,3.837322285970051894e+02,3.839355604383680429e+02,3.841377800835503535e+02,3.843011101616753535e+02,3.844433322482639142e+02,3.845600009494357892e+02,3.847044474283854356e+02,3.848766682942708144e+02,3.850633341471354356e+02,3.852555575900607892e+02,3.854166666666666856e+02,3.855677795410156250e+02,3.857400004069010606e+02,3.859444512261284785e+02,3.861966722276475821e+02,3.864777832031250000e+02,3.867844475640191035e+02,3.871000027126735858e+02,3.873977796766492929e+02,3.876711120605468750e+02,3.878944464789496465e+02,3.880488925509982892e+02,3.881733330620659785e+02,3.882877773708767108e+02,3.884099968804253535e+02,3.884911092122395644e+02,3.885188835991753535e+02,3.885222167968750000e+02,3.885411071777343750e+02,3.885977749294704608e+02,3.886877746582031250e+02,3.887922227647569571e+02,3.889333360460069571e+02,3.890644463433159785e+02,3.891877780490451642e+02,3.892811075846354356e+02,3.893677775065104356e+02,3.894844428168402715e+02,3.896077779134114394e+02,3.897699991861979356e+02,3.899144456651475821e+02,3.900677795410156250e+02,3.902055596245659785e+02,3.903499993218316035e+02,3.904688890245225821e+02,3.905844455295139142e+02,3.906966688368055429e+02,3.908455573187933965e+02,3.910044420030382071e+02,3.911733296712239394e+02,3.913322177463107892e+02,3.914788818359375000e+02,3.916222195095485858e+02,3.917722201877170392e+02,3.919188944498698106e+02,3.920744459364149179e+02,3.921988898383246465e+02,3.923022189670139142e+02,3.923899976942274179e+02,3.924977756076389142e+02,3.926544426812066035e+02,3.928388875325520644e+02,3.930444437662760606e+02
3.887988857693142108e+02,3.887966647677951642e+02,3.889177754720051894e+02,3.890911051432291856e+02,3.892777743869357892e+02,3.894211086697048358e+02,3.894888882107204608e+02,3.894811096191406250e+02,3.893366631401909785e+02,3.891333346896701642e+02,3.889388868543836679e+02,3.887599995930989394e+02,3.886099955240885606e+02,3.884899970160590215e+02,3.884111124674479356e+02,3.882900017632378535e+02,3.880800035264757071e+02,3.877344462076823106e+02,3.872911139594183965e+02,3.868055589463975821e+02,3.865244445800781250e+02,3.862922227647569571e+02,3.860977749294704608e+02,3.857400004069010606e+02,3.853611111111110858e+02,3.850311143663194571e+02,3.847788865831163321e+02,3.846133287217882071e+02,3.844666612413194571e+02,3.843299967447916856e+02,3.842500000000000000e+02,3.841566704644097285e+02,3.840822279188367929e+02,3.839666714138454608e+02,3.838822191026475821e+02,3.837477756076389142e+02,3.836111077202691035e+02,3.834788886176215215e+02,3.833766649034288321e+02,3.832533298068576642e+02,3.830822211371527715e+02,3.828744439019097285e+02,3.826722242567274179e+02,3.824544474283854356e+02,3.822844475640191035e+02,3.820922241210937500e+02,3.818088887532551894e+02,3.817311096191406250e+02,3.818011101616753535e+02,3.820644395616319571e+02,3.824155510796441035e+02,3.827355516221788321e+02,3.830888875325520644e+02,3.832244432237413321e+02,3.833533325195312500e+02,3.834744432237413321e+02,3.836144476996527715e+02,3.837744479709201642e+02,3.839355570475260606e+02,3.840722181532117929e+02,3.842011074490017108e+02,3.843177795410156250e+02,3.844677802191840215e+02,3.846211140950520644e+02,3.847833353678385606e+02,3.849433390299479356e+02,3.850888909233941035e+02,3.852366672092014142e+02,3.853933308919270644e+02,3.855844455295139142e+02,3.858066677517360858e+02,3.860600009494357892e+02,3.863388875325520644e+02,3.866333312988281250e+02,3.869166666666666856e+02,3.871722242567274179e+02,3.873933376736110858e+02,3.875655585394965215e+02,3.877111104329426894e+02,3.878322211371527715e+02,3.879477742513020644e+02,3.880288865831163321e+02,3.880766601562500000e+02,3.880966627332899179e+02,3.881422220865885606e+02,3.882188890245225821e+02,3.883733317057291856e+02,3.885588853624132071e+02,3.887800021701389142e+02,3.889611138237847285e+02,3.890977817111545392e+02,3.891966654459635606e+02,3.892722235785590215e+02,3.893800014919704608e+02,3.894933369954426894e+02,3.896422220865885606e+02,3.897733323838975821e+02,3.899088846842448106e+02,3.900377773708767108e+02,3.901844414605034785e+02,3.903233337402343750e+02,3.904755554199218750e+02,3.906277770996093750e+02,3.908155551486545392e+02,3.910033298068576642e+02,3.911977742513020644e+02,3.913666619194878535e+02,3.915199957953558965e+02,3.916600002712673358e+02,3.918133341471354356e+02,3.919666714138454608e+02,3.921311136881510606e+02,3.922555575900607892e+02,3.923488905164930429e+02,3.924188876681857892e+02,3.925077785915798358e+02,3.926277770996093750e+02,3.927700025770399179e+02,3.929344482421875000e+02
3.884077758789062500e+02,3.884344414605034785e+02,3.886822170681423358e+02,3.891133287217882071e+02,3.892555541992187500e+02,3.893655565049913321e+02,3.894133334689670392e+02,3.894100002712673358e+02,3.892622205946180429e+02,3.890688917371961679e+02,3.888833312988281250e+02,3.886888868543836679e+02,3.885299953884548358e+02,3.883999972873264142e+02,3.883400031195746465e+02,3.882222256130642108e+02,3.880155605740017108e+02,3.876800028483073106e+02,3.872866685655382071e+02,3.869177788628472285e+02,3.867888895670573106e+02,3.866788906521267108e+02,3.865133327907985858e+02,3.861300014919704608e+02,3.857133348253038321e+02,3.853844502766926894e+02,3.851333346896701642e+02,3.849700012207031250e+02,3.848111097547742929e+02,3.846955532497829608e+02,3.846411098904079608e+02,3.845633341471354356e+02,3.844733378092448106e+02,3.843244493272569571e+02,3.841955566406250000e+02,3.840088873969183965e+02,3.838255513509114394e+02,3.836488850911458144e+02,3.835288865831163321e+02,3.833911064995659785e+02,3.832244432237413321e+02,3.830344441731770644e+02,3.828644476996527715e+02,3.826688944498698106e+02,3.824944491916232892e+02,3.822877807617187500e+02,3.819566650390625000e+02,3.818455539279514142e+02,3.818788892957899179e+02,3.821433308919270644e+02,3.824633314344617929e+02,3.827911071777343750e+02,3.831444430881076642e+02,3.832944437662760606e+02,3.834000006781683965e+02,3.834877794053819571e+02,3.835955573187933965e+02,3.837088928222656250e+02,3.838366699218750000e+02,3.839533352322048358e+02,3.840733337402343750e+02,3.841877780490451642e+02,3.843255581325954608e+02,3.844588928222656250e+02,3.845977851019965215e+02,3.847400071885850821e+02,3.848877800835503535e+02,3.850244411892360858e+02,3.851499938964843750e+02,3.853155517578125000e+02,3.855233323838975821e+02,3.857733323838975821e+02,3.860288865831163321e+02,3.862788831922742929e+02,3.865255533854166856e+02,3.867377760145399179e+02,3.869411146375867929e+02,3.870988905164930429e+02,3.872488911946614394e+02,3.873800014919704608e+02,3.875022210015191035e+02,3.876066657172308965e+02,3.876877746582031250e+02,3.877777777777777715e+02,3.878911132812500000e+02,3.880333353678385606e+02,3.882522210015191035e+02,3.885111083984375000e+02,3.887833319769965215e+02,3.889777798122829608e+02,3.891111145019531250e+02,3.892077806260850821e+02,3.892800021701389142e+02,3.893611111111110858e+02,3.894444444444444571e+02,3.895677761501735858e+02,3.896833326551649179e+02,3.898155517578125000e+02,3.899455532497829608e+02,3.901022169325086679e+02,3.902699991861979356e+02,3.904588894314235858e+02,3.906566704644097285e+02,3.908800048828125000e+02,3.911011115180121465e+02,3.913055555555555429e+02,3.914733310275607892e+02,3.916055569118923358e+02,3.917377794053819571e+02,3.918688897026909785e+02,3.920188903808593750e+02,3.921666700575086679e+02,3.922922227647569571e+02,3.923911132812500000e+02,3.924699978298610858e+02,3.925622253417968750e+02,3.926444464789496465e+02,3.927377827962239394e+02,3.928400065104166856e+02
3.882777777777777715e+02,3.883466627332899179e+02,3.886555514865451642e+02,3.890866631401909785e+02,3.892244432237413321e+02,3.893166673448350821e+02,3.893599989149305429e+02,3.893577779134114394e+02,3.892122226291232323e+02,3.890366719563801894e+02,3.888544447157117929e+02,3.886788872612847285e+02,3.885266621907551894e+02,3.884011094835069571e+02,3.883066677517360858e+02,3.881544460720485858e+02,3.879188910590277715e+02,3.875933363172742929e+02,3.872688903808593750e+02,3.870355563693576642e+02,3.870244479709201642e+02,3.870066731770833144e+02,3.868577813042534785e+02,3.864922247992621465e+02,3.860688883463541856e+02,3.857455613878038321e+02,3.855088907877604356e+02,3.853566691080729356e+02,3.852022196451823106e+02,3.850999959309895644e+02,3.850477769639757071e+02,3.849677802191840215e+02,3.848633388943142108e+02,3.846866692437066035e+02,3.845177781846788321e+02,3.842766655815972285e+02,3.840511067708333144e+02,3.838499959309895644e+02,3.837011074490017108e+02,3.835544399685329608e+02,3.833844401041666856e+02,3.832222188313801894e+02,3.830833367241753535e+02,3.828966742621527715e+02,3.827022298177083144e+02,3.824655592176649179e+02,3.821199985080295392e+02,3.819633314344617929e+02,3.819622226291232892e+02,3.821877746582031250e+02,3.824955546061198106e+02,3.828133307562933965e+02,3.831655578613281250e+02,3.833355577256944571e+02,3.834366692437066035e+02,3.835133327907985858e+02,3.836111077202691035e+02,3.837255554199219318e+02,3.838566691080729356e+02,3.839855584038628535e+02,3.841155565049913321e+02,3.842444458007812500e+02,3.843833380805121465e+02,3.845177849663628535e+02,3.846522284613715215e+02,3.847988925509982892e+02,3.849533318413629104e+02,3.850944417317708144e+02,3.852188856336805429e+02,3.853688863118489394e+02,3.855466647677951642e+02,3.857466668023003535e+02,3.859366658528645644e+02,3.861377766927083144e+02,3.863488871256510606e+02,3.865455559624566035e+02,3.867244466145833144e+02,3.868733350965711679e+02,3.870277777777777715e+02,3.871755540635850821e+02,3.873188849555121465e+02,3.874566650390625000e+02,3.875877787272135606e+02,3.877377827962239394e+02,3.879044494628906250e+02,3.881144476996527715e+02,3.883666653103298358e+02,3.886466640896267108e+02,3.888966640896267108e+02,3.890866699218750000e+02,3.892233378092448106e+02,3.893377821180555429e+02,3.894244452582465215e+02,3.894944424099392108e+02,3.895488891601562500e+02,3.896222229003906250e+02,3.897133348253038321e+02,3.898244425455729356e+02,3.899599982367621465e+02,3.901077745225694571e+02,3.902844407823350821e+02,3.904699978298610858e+02,3.906844448513454608e+02,3.909122246636284785e+02,3.911544426812066035e+02,3.913733317057291856e+02,3.915544433593750000e+02,3.916788906521267108e+02,3.917888929578992929e+02,3.918844468858507071e+02,3.919966701931423358e+02,3.921177808973524179e+02,3.922444458007812500e+02,3.923800014919704608e+02,3.924911092122395644e+02,3.926033359103732892e+02,3.926655578613281250e+02,3.927166714138454608e+02,3.927711147732204608e+02
3.882055562337239394e+02,3.883355509440104356e+02,3.886644422743055429e+02,3.890911085340711679e+02,3.892011108398437500e+02,3.892900017632378535e+02,3.893533325195312500e+02,3.893677775065104356e+02,3.892233310275607892e+02,3.890344475640191035e+02,3.888555569118923358e+02,3.887177768283420392e+02,3.886044413248698106e+02,3.884744432237413321e+02,3.883166673448350821e+02,3.881099989149305429e+02,3.878522203233507071e+02,3.875833333333333144e+02,3.873433363172742929e+02,3.871977776421441035e+02,3.872344462076823106e+02,3.872533365885416856e+02,3.871377800835503535e+02,3.868055555555555429e+02,3.864177754720051894e+02,3.861188930935329608e+02,3.858922254774305429e+02,3.857488911946614394e+02,3.856077779134114394e+02,3.855255533854166856e+02,3.854733344184027715e+02,3.853866678873698106e+02,3.852588941786024179e+02,3.850533345540364394e+02,3.848466695149739394e+02,3.845622219509548358e+02,3.842955559624566035e+02,3.840488857693142108e+02,3.838666653103298358e+02,3.837011074490017108e+02,3.835466647677951642e+02,3.834177754720051894e+02,3.832977803548176894e+02,3.831266716851128535e+02,3.829077826605902715e+02,3.826388922797308965e+02,3.822722235785590215e+02,3.820877821180555429e+02,3.820677829318576642e+02,3.822433336046007071e+02,3.825144449869791856e+02,3.828077765570746465e+02,3.831511128743489394e+02,3.833277757432725821e+02,3.834311116536458144e+02,3.835166659884982892e+02,3.836444430881076642e+02,3.837955559624566035e+02,3.839644470214844318e+02,3.841300048828125000e+02,3.842833353678385606e+02,3.844244452582465215e+02,3.845688917371961679e+02,3.847244500054253535e+02,3.848833380805121465e+02,3.850488891601562500e+02,3.852144402398003535e+02,3.853544413248698106e+02,3.854733310275607892e+02,3.855966661241319571e+02,3.857466668023003535e+02,3.859111158582899179e+02,3.860455593532985858e+02,3.861844482421875000e+02,3.863499993218316035e+02,3.865322197808160354e+02,3.867077738444010606e+02,3.868566657172308965e+02,3.870144449869791856e+02,3.871833326551649179e+02,3.873544413248698106e+02,3.875411071777343750e+02,3.877166680230034785e+02,3.879100036621093750e+02,3.880955607096354356e+02,3.883155585394965215e+02,3.885555555555555429e+02,3.888155551486545392e+02,3.890511101616753535e+02,3.892522243923611427e+02,3.894122246636284785e+02,3.895488925509982892e+02,3.896400010850694571e+02,3.897033318413628535e+02,3.897344428168402715e+02,3.897688903808593750e+02,3.898277791341145644e+02,3.899111124674479356e+02,3.900322197808159785e+02,3.901655544704861427e+02,3.903344421386718750e+02,3.905155571831597285e+02,3.907333374023437500e+02,3.909677836100260606e+02,3.912366706000433396e+02,3.914744466145833144e+02,3.916733364529079608e+02,3.917822231716579608e+02,3.918644476996527715e+02,3.919333326551649179e+02,3.920144449869791856e+02,3.921188897026909785e+02,3.922300008138020644e+02,3.923822224934895644e+02,3.925133327907985858e+02,3.926355590820312500e+02,3.926855604383680429e+02,3.927122260199652715e+02,3.927400004069010606e+02
3.886033393012152715e+02,3.887644449869791856e+02,3.889900037977430429e+02,3.891133321126301894e+02,3.891888902452257071e+02,3.892555575900607892e+02,3.893433363172742929e+02,3.893744472927517108e+02,3.892455546061198106e+02,3.890566677517360858e+02,3.888833346896701642e+02,3.888166673448350821e+02,3.887533331976996465e+02,3.886277770996093750e+02,3.883777770996093750e+02,3.880988871256510606e+02,3.878366631401909785e+02,3.876466674804687500e+02,3.874733344184027715e+02,3.873488905164930429e+02,3.873788892957899179e+02,3.874077826605902715e+02,3.873400031195746465e+02,3.870577799479166856e+02,3.867288886176215215e+02,3.864811164008246465e+02,3.862755601671007071e+02,3.861422220865885606e+02,3.860011088053385606e+02,3.859166632758246465e+02,3.858511115180121465e+02,3.857511121961805429e+02,3.856088901095920392e+02,3.853822224934895644e+02,3.851555548773871465e+02,3.848399997287326642e+02,3.845388895670573106e+02,3.842622205946180429e+02,3.840577765570746465e+02,3.838866644965277715e+02,3.837388882107204608e+02,3.836199985080295392e+02,3.835033331976996465e+02,3.833211127387153283e+02,3.830744459364149179e+02,3.827822231716579608e+02,3.824100002712673358e+02,3.822044474283854356e+02,3.821555582682291856e+02,3.822855563693576642e+02,3.825544433593750000e+02,3.828333333333333144e+02,3.831500006781683965e+02,3.833055555555555429e+02,3.834277784559461679e+02,3.835499979654948106e+02,3.837255554199218750e+02,3.839155578613281250e+02,3.841244472927517108e+02,3.843255581325954608e+02,3.845099995930989394e+02,3.846844448513454608e+02,3.848566657172308965e+02,3.850522223578558965e+02,3.852477756076389142e+02,3.854377746582031250e+02,3.856033291286892108e+02,3.857533331976996465e+02,3.858866678873698106e+02,3.860211113823784785e+02,3.861488884819878535e+02,3.862755567762586679e+02,3.863633355034722285e+02,3.864300028483073106e+02,3.865522223578558965e+02,3.867244432237413321e+02,3.869377746582031250e+02,3.871099989149305429e+02,3.872688869900173358e+02,3.874244418674045392e+02,3.876066657172308965e+02,3.878177761501735858e+02,3.880244479709201642e+02,3.882044474283854356e+02,3.883622266981336679e+02,3.885533345540364394e+02,3.887755533854166856e+02,3.890155537923176894e+02,3.892322218153212248e+02,3.894333360460070139e+02,3.896122233072916856e+02,3.897755567762587248e+02,3.898733317057291856e+02,3.899388868543836679e+02,3.899599982367621465e+02,3.899733344184027715e+02,3.900088907877604356e+02,3.900677795410156250e+02,3.901711120605468750e+02,3.902877807617187500e+02,3.904344448513454608e+02,3.906033359103732892e+02,3.908066677517360858e+02,3.910400017632378535e+02,3.913244425455729356e+02,3.915944417317708144e+02,3.918144429524739394e+02,3.919199964735242929e+02,3.919722222222222285e+02,3.920155537923176894e+02,3.920688883463541856e+02,3.921611090766058965e+02,3.922622205946180429e+02,3.924144422743055429e+02,3.925499979654948106e+02,3.926744452582465215e+02,3.927300008138020644e+02,3.927488911946614394e+02,3.927688869900173358e+02
3.887744479709201642e+02,3.889322238498264142e+02,3.890877821180555429e+02,3.891488918728298358e+02,3.891688944498698106e+02,3.892266710069444571e+02,3.893144497341579608e+02,3.893666687011718750e+02,3.892633293999566035e+02,3.890966627332899179e+02,3.889399990505642108e+02,3.888733350965711679e+02,3.888100043402777715e+02,3.886655578613281250e+02,3.883911132812500000e+02,3.881022203233507071e+02,3.878666653103298358e+02,3.877422214084201642e+02,3.875877787272135606e+02,3.874544440375433965e+02,3.874666646321614394e+02,3.875166659884982892e+02,3.874966668023003535e+02,3.872666693793402715e+02,3.870100029839409785e+02,3.868144497341579608e+02,3.866411166720920392e+02,3.865155571831597285e+02,3.863766682942708144e+02,3.862788899739583144e+02,3.861966688368055429e+02,3.860866665310329608e+02,3.859177754720051894e+02,3.856711086697048358e+02,3.854255540635850821e+02,3.851166653103298358e+02,3.847944471571180429e+02,3.844788886176215215e+02,3.842311130099826642e+02,3.840477769639757071e+02,3.839022250705295392e+02,3.837788899739583144e+02,3.836455552842882071e+02,3.834433322482639142e+02,3.831922200520833144e+02,3.828900010850694571e+02,3.825088907877604356e+02,3.822855597601996465e+02,3.822188890245225821e+02,3.823300001356336679e+02,3.825822211371527715e+02,3.828522237141926894e+02,3.831622212727864394e+02,3.833322211371527715e+02,3.834944424099392108e+02,3.836733296712239394e+02,3.839022216796875000e+02,3.841266682942708144e+02,3.843555569118923358e+02,3.845722215440538321e+02,3.847755533854166856e+02,3.849799974229600821e+02,3.851833292643229356e+02,3.854199964735242929e+02,3.856588880750867929e+02,3.858855556911892108e+02,3.860722215440538321e+02,3.862266676161024179e+02,3.863700018988715215e+02,3.865222235785590215e+02,3.866688910590277715e+02,3.867933349609375000e+02,3.868622266981336679e+02,3.868566691080729356e+02,3.869244452582465215e+02,3.870555521647135606e+02,3.872911071777343750e+02,3.874777764214409785e+02,3.876344434950086679e+02,3.877711079915364394e+02,3.879322204589843750e+02,3.881311102973090215e+02,3.883400031195746465e+02,3.885099995930989394e+02,3.886633334689670392e+02,3.888211093478732892e+02,3.890177781846788321e+02,3.892288886176215215e+02,3.894433322482639142e+02,3.896488850911458144e+02,3.898311055501301894e+02,3.899955546061198106e+02,3.900933329264323106e+02,3.901644456651475821e+02,3.901911112467448106e+02,3.902177802191840215e+02,3.902633361816406250e+02,3.903277791341145644e+02,3.904199998643663321e+02,3.905200025770399179e+02,3.906500006781683965e+02,3.908122253417968750e+02,3.910022243923610858e+02,3.912266710069444571e+02,3.914988911946614394e+02,3.917655537923176894e+02,3.919822184244791856e+02,3.920866597493489394e+02,3.921288859049479356e+02,3.921611090766058965e+02,3.922077772352430429e+02,3.923044433593750000e+02,3.924077758789062500e+02,3.925566643608941035e+02,3.926966654459635606e+02,3.928188917371961679e+02,3.928744472927517108e+02,3.929133334689670392e+02,3.929511074490017108e+02
3.889255608452691035e+02,3.890511169433593750e+02,3.891588948567708144e+02,3.891811150444878535e+02,3.891677822536892108e+02,3.891966688368055429e+02,3.892511155870225821e+02,3.892933349609375000e+02,3.892099982367621465e+02,3.890966627332899179e+02,3.889655524359808965e+02,3.888700018988715215e+02,3.887588907877604356e+02,3.885977783203125000e+02,3.883888854980468750e+02,3.881666632758246465e+02,3.879922214084201642e+02,3.878833346896701642e+02,3.877377760145399179e+02,3.876077745225694571e+02,3.876111077202691035e+02,3.876600002712673358e+02,3.876511128743489394e+02,3.874733378092448106e+02,3.872733391655816035e+02,3.871322292751735858e+02,3.869866739908854356e+02,3.868688930935329608e+02,3.867200046115451642e+02,3.865966695149739394e+02,3.864900037977430429e+02,3.863677775065104356e+02,3.861777750651041856e+02,3.859144422743055429e+02,3.856566670735676894e+02,3.853633355034722285e+02,3.850444471571180429e+02,3.847022230360242929e+02,3.844100002712673358e+02,3.841899990505642108e+02,3.840288899739583144e+02,3.838977796766492929e+02,3.837533331976996465e+02,3.835222201877170392e+02,3.832488844129774179e+02,3.829433322482639142e+02,3.825577765570746465e+02,3.823455539279514142e+02,3.822833285861545392e+02,3.824055548773871465e+02,3.826622212727864394e+02,3.829299994574652715e+02,3.832422180175781250e+02,3.834233330620659785e+02,3.836122233072916856e+02,3.838266669379340215e+02,3.840777791341145644e+02,3.843233337402343750e+02,3.845711093478732892e+02,3.848111063639323106e+02,3.850499979654948106e+02,3.853055555555555429e+02,3.855533311631944571e+02,3.858344387478298358e+02,3.861155531141492929e+02,3.863833346896701642e+02,3.865977817111545392e+02,3.867633361816406250e+02,3.869222242567274179e+02,3.870933329264323106e+02,3.872577785915798358e+02,3.873766649034288321e+02,3.874200032552083144e+02,3.873566691080729356e+02,3.873622266981336679e+02,3.874633348253038321e+02,3.877077772352430429e+02,3.879166666666666856e+02,3.880677761501735858e+02,3.881744418674045392e+02,3.882933315700954608e+02,3.884433322482639142e+02,3.886222229003906250e+02,3.887799987792968750e+02,3.889333326551649748e+02,3.890877753363715783e+02,3.892644415961372601e+02,3.894522196451823106e+02,3.896399976942274179e+02,3.898333299424913321e+02,3.900099962022569571e+02,3.901777784559461679e+02,3.902811109754774179e+02,3.903599989149305429e+02,3.904011094835069571e+02,3.904433356391058965e+02,3.905055609809027715e+02,3.905877821180555429e+02,3.906866692437066035e+02,3.907855563693576642e+02,3.909033304850260606e+02,3.910444437662760606e+02,3.912066650390625000e+02,3.913855556911892108e+02,3.916222195095485858e+02,3.918588867187500000e+02,3.920722181532117929e+02,3.921866624620225821e+02,3.922466634114583144e+02,3.922833319769965215e+02,3.923377787272135606e+02,3.924311116536458144e+02,3.925477769639757071e+02,3.927099982367621465e+02,3.928711107042100821e+02,3.930122239854600821e+02,3.930800001356336679e+02,3.931444430881076642e+02,3.931933322482639142e+02
3.890788913302951642e+02,3.891633368598090215e+02,3.892266676161024179e+02,3.892300008138020644e+02,3.891922234429253535e+02,3.891911112467448106e+02,3.892000020345051894e+02,3.892133314344617929e+02,3.891388854980468750e+02,3.890622185601128535e+02,3.889499986436632071e+02,3.888055589463975821e+02,3.885011121961805429e+02,3.882055562337239394e+02,3.880922173394097285e+02,3.881022169325086679e+02,3.880799967447916856e+02,3.879055548773871465e+02,3.877933315700954608e+02,3.877477722167968750e+02,3.878544379340277715e+02,3.878833279079860858e+02,3.878566657172308965e+02,3.876944478352864394e+02,3.875488925509982892e+02,3.874388936360676894e+02,3.873155585394965215e+02,3.872033386230468750e+02,3.870555623372395644e+02,3.869222276475694571e+02,3.867922261555989394e+02,3.866499972873264142e+02,3.864266628689235858e+02,3.861455485026041856e+02,3.858733317057291856e+02,3.855899997287326642e+02,3.852688903808593750e+02,3.849133300781250000e+02,3.845799967447916856e+02,3.843177761501735858e+02,3.841222262912326642e+02,3.839622294108073106e+02,3.837955593532985858e+02,3.835411105685764142e+02,3.832644415961371465e+02,3.829588894314235858e+02,3.826022237141926894e+02,3.824033338758680429e+02,3.823633321126301894e+02,3.824733344184027715e+02,3.827133348253038321e+02,3.829666646321614394e+02,3.832911071777343750e+02,3.835122172037760606e+02,3.837244432237413321e+02,3.839666646321614394e+02,3.842377794053819571e+02,3.845166659884982892e+02,3.847966647677951642e+02,3.850688815646701642e+02,3.853555535210503535e+02,3.856611090766058965e+02,3.859711100260416856e+02,3.862899949815538321e+02,3.866077779134114394e+02,3.869055582682291856e+02,3.871533372667100821e+02,3.873333333333333144e+02,3.875111117892795392e+02,3.876900024414062500e+02,3.878666720920139142e+02,3.879777798122829608e+02,3.880144483778211679e+02,3.879277818467882071e+02,3.878522271050347285e+02,3.879033338758680429e+02,3.881233283148871465e+02,3.883555535210503535e+02,3.885066663953992929e+02,3.885933329264323106e+02,3.886788872612847285e+02,3.887755533854166856e+02,3.889055548773871465e+02,3.890522223578558965e+02,3.892088894314236427e+02,3.893666653103298927e+02,3.895288865831163321e+02,3.897044406467014142e+02,3.898799981011284785e+02,3.900611063639323106e+02,3.902166646321614394e+02,3.903655565049913321e+02,3.904677802191840215e+02,3.905566677517360858e+02,3.906144443088107892e+02,3.906733364529079608e+02,3.907466701931423358e+02,3.908400065104166856e+02,3.909466688368055429e+02,3.910488891601562500e+02,3.911611056857639142e+02,3.912777743869357892e+02,3.914033304850260606e+02,3.915377773708767108e+02,3.917211100260416856e+02,3.919133334689670392e+02,3.921066657172308965e+02,3.922299974229600821e+02,3.923133307562933965e+02,3.923611111111110858e+02,3.924244486490885606e+02,3.925155605740017108e+02,3.926455586751301894e+02,3.928277791341145644e+02,3.930255567762586679e+02,3.931966688368055429e+02,3.932900017632378535e+02,3.933888888888889142e+02,3.934666680230034785e+02
3.892211168077257071e+02,3.892477789984808965e+02,3.892733323838975821e+02,3.892655537923176894e+02,3.892144436306423358e+02,3.891833326551649179e+02,3.891555548773871465e+02,3.891333312988281250e+02,3.890577765570746465e+02,3.889977789984808965e+02,3.888966708713107892e+02,3.887444491916232892e+02,3.884344448513454608e+02,3.881488884819878535e+02,3.880777723524305429e+02,3.881344401041666856e+02,3.881622178819444571e+02,3.880555555555555429e+02,3.880033298068576642e+02,3.880122172037760606e+02,3.881033291286892108e+02,3.881088867187500000e+02,3.880755581325954608e+02,3.879466688368055429e+02,3.878288913302951073e+02,3.877444458007812500e+02,3.876344468858507071e+02,3.875255601671007071e+02,3.873644510904948106e+02,3.872088928222656250e+02,3.870522257486979356e+02,3.868811102973090215e+02,3.866411098904079608e+02,3.863655531141492929e+02,3.860922241210937500e+02,3.857944471571180429e+02,3.854655558268229356e+02,3.851044413248698106e+02,3.847555508083767108e+02,3.844266662597656250e+02,3.841533338758680429e+02,3.839411146375867929e+02,3.837566663953992929e+02,3.835099995930989394e+02,3.832300008138020644e+02,3.829444478352864394e+02,3.826111111111110858e+02,3.824488864474826642e+02,3.824311082628038321e+02,3.825600009494357892e+02,3.828111131456163321e+02,3.830555555555555429e+02,3.833677775065104356e+02,3.835711093478732892e+02,3.837811109754774179e+02,3.840288899739583144e+02,3.843144497341579608e+02,3.846211140950520644e+02,3.849311116536458144e+02,3.852488844129774179e+02,3.855955539279514142e+02,3.859555528428819571e+02,3.863233303493923358e+02,3.866777716742621465e+02,3.870288865831163321e+02,3.873366665310329608e+02,3.875933363172742929e+02,3.877888861762152715e+02,3.879688856336805429e+02,3.881522182888454608e+02,3.883222215440538321e+02,3.884388868543836679e+02,3.884722222222222285e+02,3.883811136881510606e+02,3.882388916015625000e+02,3.882388916015625000e+02,3.884211086697048358e+02,3.886833326551649179e+02,3.888522203233507071e+02,3.889444444444444571e+02,3.890188903808593750e+02,3.890911119249132071e+02,3.891833326551649179e+02,3.893033345540364394e+02,3.894400024414062500e+02,3.896033359103732892e+02,3.897744411892360858e+02,3.899577738444010606e+02,3.901233317057291856e+02,3.902866651746961679e+02,3.904266662597656250e+02,3.905622219509548358e+02,3.906611124674479356e+02,3.907555541992187500e+02,3.908255547417534785e+02,3.908900010850694571e+02,3.909533352322048358e+02,3.910388929578992929e+02,3.911344434950086679e+02,3.912488878038194571e+02,3.913622165256076642e+02,3.914733310275607892e+02,3.915744391547308965e+02,3.916822170681423358e+02,3.918311055501301894e+02,3.919822218153211679e+02,3.921366678873698106e+02,3.922455579969617929e+02,3.923300001356336679e+02,3.923933342827691035e+02,3.924700012207031250e+02,3.925666707356770644e+02,3.927066684299045392e+02,3.928988884819878535e+02,3.931133321126301894e+02,3.933044433593750000e+02,3.934311116536458144e+02,3.935622219509548358e+02,3.936633368598090215e+02
