3.860567321777343750e+02,3.860032348632813068e+02,3.859475708007813068e+02,3.858896484375000000e+02,3.858294067382813068e+02,3.857670288085937500e+02,3.857024230957031250e+02,3.856355590820313068e+02,3.855663146972656250e+02,3.854946289062500000e+02,3.854205627441406250e+02,3.853442687988280682e+02,3.852657775878905682e+02,3.851851501464843750e+02,3.851022644042968750e+02,3.850176086425780682e+02,3.849312744140625000e+02,3.848432006835937500e+02,3.847532348632813068e+02,3.846618041992188068e+02,3.845689086914063068e+02,3.844749145507813068e+02,3.843798217773437500e+02,3.842837219238280682e+02,3.841867980957031250e+02,3.840888671875000000e+02,3.839904785156249432e+02,3.838918151855468750e+02,3.837930603027343750e+02,3.836940917968751137e+02,3.835954895019531250e+02,3.834974060058593750e+02,3.834000854492188068e+02,3.833035583496093750e+02,3.832077636718751137e+02,3.831126098632813068e+02,3.830180358886719318e+02,3.829240417480468750e+02,3.828302917480468750e+02,3.827363891601562500e+02,3.826420288085937500e+02,3.825469970703125000e+02,3.824513854980468750e+02,3.823553161621093750e+02,3.822589416503905682e+02,3.821622924804688068e+02,3.820657958984375000e+02,3.819700622558593750e+02,3.818757019042968750e+02,3.817830505371093750e+02,3.816925354003905682e+02,3.816042480468751137e+02,3.815184020996093750e+02,3.814350280761719318e+02,3.813542175292968750e+02,3.812768859863280682e+02,3.812041931152343750e+02,3.811385192871093750e+02,3.810826721191406250e+02,3.810384826660156250e+02,3.810000000000000000e+02,3.809681091308593750e+02,3.809470214843751137e+02,3.808975830078125000e+02,3.808339843750000000e+02,3.807632446289063068e+02,3.806889648437500000e+02,3.806151428222656250e+02,3.805466613769531250e+02,3.804887084960937500e+02,3.804457397460937500e+02,3.804207153320313068e+02,3.804151916503905682e+02,3.804398803710937500e+02,3.804757690429688068e+02,3.805195007324217613e+02,3.805690002441406250e+02,3.806217956542968750e+02,3.806755371093751137e+02,3.807284545898437500e+02,3.807789306640625000e+02,3.808267822265625000e+02,3.808723144531249432e+02,3.809165954589843750e+02,3.809588623046875000e+02,3.810001831054688068e+02,3.811387634277343750e+02,3.813281555175780682e+02,3.815507202148437500e+02,3.817963562011719318e+02,3.820591430664063068e+02,3.823349304199217613e+02,3.826217041015625000e+02,3.829181518554688068e+02,3.832228393554688068e+02,3.835338134765625000e+02,3.838482666015625000e+02,3.841636047363280682e+02,3.844777526855468750e+02,3.847895812988280682e+02,3.850987243652343750e+02,3.854037780761719318e+02,3.857016296386719318e+02,3.859877624511719318e+02,3.862577209472656250e+02,3.865095825195313068e+02,3.867438354492188068e+02,3.869646606445313068e+02,3.871781616210937500e+02,3.873900146484375000e+02,3.876040649414063068e+02,3.878209228515625000e+02,3.880373535156249432e+02,3.882473144531249432e+02,3.884434204101562500e+02,3.886199951171875000e+02,3.887762145996093750e+02,3.889166564941406250e+02,3.890469970703125000e+02
3.862233276367188068e+02,3.861697082519531250e+02,3.861138000488280682e+02,3.860553283691406250e+02,3.859944763183593750e+02,3.859312744140625000e+02,3.858656311035156250e+02,3.857975463867188068e+02,3.857270202636719318e+02,3.856538696289063068e+02,3.855780944824217613e+02,3.855000000000000000e+02,3.854196166992188068e+02,3.853368225097656250e+02,3.852518005371093750e+02,3.851649475097656250e+02,3.850764160156249432e+02,3.849859313964843750e+02,3.848936157226562500e+02,3.847998046875000000e+02,3.847044372558593750e+02,3.846079101562500000e+02,3.845101928710937500e+02,3.844115600585937500e+02,3.843118896484375000e+02,3.842110595703125000e+02,3.841098937988280682e+02,3.840082397460937500e+02,3.839063110351562500e+02,3.838042297363280682e+02,3.837024230957031250e+02,3.836009216308593750e+02,3.835003662109375000e+02,3.834004821777343750e+02,3.833013305664063068e+02,3.832030944824217613e+02,3.831054992675780682e+02,3.830083923339843750e+02,3.829115600585937500e+02,3.828146972656249432e+02,3.827176208496093750e+02,3.826201477050780682e+02,3.825220947265625000e+02,3.824237670898437500e+02,3.823250122070313068e+02,3.822261352539063068e+02,3.821273803710937500e+02,3.820294494628905682e+02,3.819330139160156250e+02,3.818385009765625000e+02,3.817463684082031250e+02,3.816567382812500000e+02,3.815700073242188068e+02,3.814860839843751137e+02,3.814051208496093750e+02,3.813275146484375000e+02,3.812544250488280682e+02,3.811873779296875000e+02,3.811281433105468750e+02,3.810772399902343750e+02,3.810333862304688068e+02,3.810000305175780682e+02,3.809999694824217613e+02,3.809490356445313068e+02,3.808881530761719318e+02,3.808200073242188068e+02,3.807462463378905682e+02,3.806705627441406250e+02,3.805979309082031250e+02,3.805340576171875000e+02,3.804841003417968750e+02,3.804514465332031250e+02,3.804368286132813068e+02,3.804517211914063068e+02,3.804844665527343750e+02,3.805279235839843750e+02,3.805784912109375000e+02,3.806331787109375000e+02,3.806893310546875000e+02,3.807442932128905682e+02,3.807962646484375000e+02,3.808446655273437500e+02,3.808906250000000000e+02,3.809398803710937500e+02,3.809998779296875000e+02,3.810533447265625000e+02,3.811784362792968750e+02,3.813572692871093750e+02,3.815722045898437500e+02,3.818120422363280682e+02,3.820700683593751137e+02,3.823418273925780682e+02,3.826254272460937500e+02,3.829190063476562500e+02,3.832214050292968750e+02,3.835307617187500000e+02,3.838439636230468750e+02,3.841583557128905682e+02,3.844719543457031250e+02,3.847834472656249432e+02,3.850923461914063068e+02,3.853972778320313068e+02,3.856947021484375000e+02,3.859806823730468750e+02,3.862509155273437500e+02,3.865030212402343750e+02,3.867376708984375000e+02,3.869587707519531250e+02,3.871724243164063068e+02,3.873847961425780682e+02,3.875999755859375000e+02,3.878186340332031250e+02,3.880374145507813068e+02,3.882492980957031250e+02,3.884459838867188068e+02,3.886199951171875000e+02,3.887715759277343750e+02,3.889084472656249432e+02,3.890378417968751137e+02
3.863880615234375000e+02,3.863344421386719318e+02,3.862783203125000000e+02,3.862195434570313068e+02,3.861582031250000000e+02,3.860943908691406250e+02,3.860278930664063068e+02,3.859586181640625000e+02,3.858868408203125000e+02,3.858123474121093750e+02,3.857349853515625000e+02,3.856551513671875000e+02,3.855729675292968750e+02,3.854882507324217613e+02,3.854013671875000000e+02,3.853125305175780682e+02,3.852218017578125000e+02,3.851289672851562500e+02,3.850344238281249432e+02,3.849382629394531250e+02,3.848404541015625000e+02,3.847414550781249432e+02,3.846412658691406250e+02,3.845401000976562500e+02,3.844377136230468750e+02,3.843343200683593750e+02,3.842304687500000000e+02,3.841259765625000000e+02,3.840209960937500000e+02,3.839157714843751137e+02,3.838109130859375000e+02,3.837062683105468750e+02,3.836024169921875000e+02,3.834992675781249432e+02,3.833969421386719318e+02,3.832953796386719318e+02,3.831946105957031250e+02,3.830944213867188068e+02,3.829945373535156250e+02,3.828947448730468750e+02,3.827950134277343750e+02,3.826949462890625000e+02,3.825945434570313068e+02,3.824936523437500000e+02,3.823925476074217613e+02,3.822914733886719318e+02,3.821904907226562500e+02,3.820903320312500000e+02,3.819917907714843750e+02,3.818953857421875000e+02,3.818016357421875000e+02,3.817108154296875000e+02,3.816229858398437500e+02,3.815384521484375000e+02,3.814572143554688068e+02,3.813793640136719318e+02,3.813053894042968750e+02,3.812366333007813068e+02,3.811741333007813068e+02,3.811182556152343750e+02,3.810691223144531250e+02,3.810283508300780682e+02,3.810000305175780682e+02,3.809711303710937500e+02,3.809278259277343750e+02,3.808686523437500000e+02,3.807983398437500000e+02,3.807226257324217613e+02,3.806473693847656250e+02,3.805786743164063068e+02,3.805227355957031250e+02,3.804837341308593750e+02,3.804638061523437500e+02,3.804669799804688068e+02,3.804985961914063068e+02,3.805422058105468750e+02,3.805943603515625000e+02,3.806518859863280682e+02,3.807114257812500000e+02,3.807696228027343750e+02,3.808239440917968750e+02,3.808721618652343750e+02,3.809144287109375000e+02,3.809552001953125000e+02,3.810001525878905682e+02,3.810919189453125000e+02,3.812265319824217613e+02,3.814012451171875000e+02,3.816084899902343750e+02,3.818405456542968750e+02,3.820915832519531250e+02,3.823574523925780682e+02,3.826361083984375000e+02,3.829256591796875000e+02,3.832249145507813068e+02,3.835315856933593750e+02,3.838428344726562500e+02,3.841556091308593750e+02,3.844679565429688068e+02,3.847787475585937500e+02,3.850871887207031250e+02,3.853915405273437500e+02,3.856887512207031250e+02,3.859745788574217613e+02,3.862447204589843750e+02,3.864967956542968750e+02,3.867313842773437500e+02,3.869522399902343750e+02,3.871658020019531250e+02,3.873784179687500000e+02,3.875944213867188068e+02,3.878146667480468750e+02,3.880357666015625000e+02,3.882506408691406250e+02,3.884490051269531250e+02,3.886199951171875000e+02,3.887623596191406250e+02,3.888928833007813068e+02,3.890213928222656250e+02
3.865506286621093750e+02,3.864971923828125000e+02,3.864410095214843750e+02,3.863819885253905682e+02,3.863203735351562500e+02,3.862560119628905682e+02,3.861888122558593750e+02,3.861184997558593750e+02,3.860455627441406250e+02,3.859697570800780682e+02,3.858909301757813068e+02,3.858096923828125000e+02,3.857257385253905682e+02,3.856393432617188068e+02,3.855504150390625000e+02,3.854595947265625000e+02,3.853666076660156250e+02,3.852717590332031250e+02,3.851749572753905682e+02,3.850766906738280682e+02,3.849767761230468750e+02,3.848754882812500000e+02,3.847729187011719318e+02,3.846692810058593750e+02,3.845643920898437500e+02,3.844584960937500000e+02,3.843518676757813068e+02,3.842446899414063068e+02,3.841368408203125000e+02,3.840287170410156250e+02,3.839207458496093750e+02,3.838130187988280682e+02,3.837059631347656250e+02,3.835996704101562500e+02,3.834940795898437500e+02,3.833893432617188068e+02,3.832852478027343750e+02,3.831818847656249432e+02,3.830790710449217613e+02,3.829764404296875000e+02,3.828740234375000000e+02,3.827712707519531250e+02,3.826683959960937500e+02,3.825650024414063068e+02,3.824614257812500000e+02,3.823580627441406250e+02,3.822549133300780682e+02,3.821526794433593750e+02,3.820519714355468750e+02,3.819535827636719318e+02,3.818579101562500000e+02,3.817655639648437500e+02,3.816766662597656250e+02,3.815912170410156250e+02,3.815093383789063068e+02,3.814309997558593750e+02,3.813562316894531250e+02,3.812858886718751137e+02,3.812208557128905682e+02,3.811617126464843750e+02,3.811091613769531250e+02,3.810643310546875000e+02,3.810291137695313068e+02,3.810000305175780682e+02,3.809661865234375000e+02,3.809125366210937500e+02,3.808453674316406250e+02,3.807705078125000000e+02,3.806937255859375000e+02,3.806215209960937500e+02,3.805608825683593750e+02,3.805166015625000000e+02,3.804917602539063068e+02,3.804878234863280682e+02,3.805172119140625000e+02,3.805610961914063068e+02,3.806152343750000000e+02,3.806762390136719318e+02,3.807399902343751137e+02,3.808026733398437500e+02,3.808609924316406250e+02,3.809115295410156250e+02,3.809542541503905682e+02,3.810000000000000000e+02,3.810557556152343750e+02,3.811515502929688068e+02,3.812858886718751137e+02,3.814552612304688068e+02,3.816543884277343750e+02,3.818779296875000000e+02,3.821211242675780682e+02,3.823800048828125000e+02,3.826525878906249432e+02,3.829371948242188068e+02,3.832325134277343750e+02,3.835359497070313068e+02,3.838445434570313068e+02,3.841552429199217613e+02,3.844660034179688068e+02,3.847754821777343750e+02,3.850830993652343750e+02,3.853868713378905682e+02,3.856835632324217613e+02,3.859691467285156250e+02,3.862391357421875000e+02,3.864907226562500000e+02,3.867246704101562500e+02,3.869449462890625000e+02,3.871579284667968750e+02,3.873701477050780682e+02,3.875862426757813068e+02,3.878069458007813068e+02,3.880296020507813068e+02,3.882475891113280682e+02,3.884500427246093750e+02,3.886201477050780682e+02,3.887440490722656250e+02,3.888660888671875000e+02,3.889957580566406250e+02
3.867106933593751137e+02,3.866576232910156250e+02,3.866014404296875000e+02,3.865424804687500000e+02,3.864805908203125000e+02,3.864158325195313068e+02,3.863478393554688068e+02,3.862767944335937500e+02,3.862028198242188068e+02,3.861257324218751137e+02,3.860456542968751137e+02,3.859630126953125000e+02,3.858774719238280682e+02,3.857892150878905682e+02,3.856986694335937500e+02,3.856060180664063068e+02,3.855109252929688068e+02,3.854139404296875000e+02,3.853151245117188068e+02,3.852149047851562500e+02,3.851128845214843750e+02,3.850093994140625000e+02,3.849045715332031250e+02,3.847986450195313068e+02,3.846914367675780682e+02,3.845831298828125000e+02,3.844739379882813068e+02,3.843640747070313068e+02,3.842534484863280682e+02,3.841426696777343750e+02,3.840317687988280682e+02,3.839210510253905682e+02,3.838108520507813068e+02,3.837012329101562500e+02,3.835924682617188068e+02,3.834846191406249432e+02,3.833775024414063068e+02,3.832711181640625000e+02,3.831651611328125000e+02,3.830595703125000000e+02,3.829543457031249432e+02,3.828489685058593750e+02,3.827434997558593750e+02,3.826377868652343750e+02,3.825318603515625000e+02,3.824260864257813068e+02,3.823207092285156250e+02,3.822161865234375000e+02,3.821130981445313068e+02,3.820125122070313068e+02,3.819149169921875000e+02,3.818208007812500000e+02,3.817304382324217613e+02,3.816437683105468750e+02,3.815609436035156250e+02,3.814816589355468750e+02,3.814058532714843750e+02,3.813339843750000000e+02,3.812667846679688068e+02,3.812052307128905682e+02,3.811498107910156250e+02,3.811014404296875000e+02,3.810615539550780682e+02,3.810293273925780682e+02,3.810000000000000000e+02,3.809490356445313068e+02,3.808860473632813068e+02,3.808133850097656250e+02,3.807363281250000000e+02,3.806618652343751137e+02,3.805974121093751137e+02,3.805486145019531250e+02,3.805191345214843750e+02,3.805098266601562500e+02,3.805379028320313068e+02,3.805821228027343750e+02,3.806384277343751137e+02,3.807028808593751137e+02,3.807712707519531250e+02,3.808392028808593750e+02,3.809027404785156250e+02,3.809576721191406250e+02,3.810000000000000000e+02,3.810509643554688068e+02,3.811184997558593750e+02,3.812174377441406250e+02,3.813499755859375000e+02,3.815137634277343750e+02,3.817052307128905682e+02,3.819203491210937500e+02,3.821554260253905682e+02,3.824071044921875000e+02,3.826733398437500000e+02,3.829524841308593750e+02,3.832432250976562500e+02,3.835430297851562500e+02,3.838486633300780682e+02,3.841569519042968750e+02,3.844657287597656250e+02,3.847737731933593750e+02,3.850802917480468750e+02,3.853832092285156250e+02,3.856791687011719318e+02,3.859639587402343750e+02,3.862333374023437500e+02,3.864844055175780682e+02,3.867173767089843750e+02,3.869366760253905682e+02,3.871486816406249432e+02,3.873599548339843750e+02,3.875746459960937500e+02,3.877938537597656250e+02,3.880150146484375000e+02,3.882326660156249432e+02,3.884392395019531250e+02,3.886191406250000000e+02,3.887048645019531250e+02,3.888238220214843750e+02,3.889620056152343750e+02
3.868681640625000000e+02,3.868153991699217613e+02,3.867595825195313068e+02,3.867005615234375000e+02,3.866385803222656250e+02,3.865733337402343750e+02,3.865046997070313068e+02,3.864330139160156250e+02,3.863580322265625000e+02,3.862801208496093750e+02,3.861990661621093750e+02,3.861149291992188068e+02,3.860279541015625000e+02,3.859382019042968750e+02,3.858460083007813068e+02,3.857514038085937500e+02,3.856544494628905682e+02,3.855555114746093750e+02,3.854548339843751137e+02,3.853524780273437500e+02,3.852485961914063068e+02,3.851430969238280682e+02,3.850360412597656250e+02,3.849277648925780682e+02,3.848182678222656250e+02,3.847077636718751137e+02,3.845962524414063068e+02,3.844838562011719318e+02,3.843708190917968750e+02,3.842572326660156250e+02,3.841434020996093750e+02,3.840298461914063068e+02,3.839165954589843750e+02,3.838039245605468750e+02,3.836920166015625000e+02,3.835811157226562500e+02,3.834709472656249432e+02,3.833614501953125000e+02,3.832525939941406250e+02,3.831441040039063068e+02,3.830360107421875000e+02,3.829279479980468750e+02,3.828198852539063068e+02,3.827116699218751137e+02,3.826034851074217613e+02,3.824954223632813068e+02,3.823876647949217613e+02,3.822807312011719318e+02,3.821752624511719318e+02,3.820722961425780682e+02,3.819724121093751137e+02,3.818761596679688068e+02,3.817838745117188068e+02,3.816955261230468750e+02,3.816111755371093750e+02,3.815305175781249432e+02,3.814533996582031250e+02,3.813800354003905682e+02,3.813110656738280682e+02,3.812470703125000000e+02,3.811885070800780682e+02,3.811355895996093750e+02,3.810880432128905682e+02,3.810439147949217613e+02,3.810000915527343750e+02,3.809704895019531250e+02,3.809186706542968750e+02,3.808507080078125000e+02,3.807745666503905682e+02,3.806987304687500000e+02,3.806314392089843750e+02,3.805789794921875000e+02,3.805452270507813068e+02,3.805318603515625000e+02,3.805586547851562500e+02,3.806029663085937500e+02,3.806610412597656250e+02,3.807286682128905682e+02,3.808011779785156250e+02,3.808735046386719318e+02,3.809406127929688068e+02,3.809999389648437500e+02,3.810427551269531250e+02,3.811002502441406250e+02,3.811773986816406250e+02,3.812806701660156250e+02,3.814122314453125000e+02,3.815715942382813068e+02,3.817564086914063068e+02,3.819639587402343750e+02,3.821914367675780682e+02,3.824362792968751137e+02,3.826962585449217613e+02,3.829701538085937500e+02,3.832563171386719318e+02,3.835523376464843750e+02,3.838546752929688068e+02,3.841603088378905682e+02,3.844670410156249432e+02,3.847734985351562500e+02,3.850785522460937500e+02,3.853804016113280682e+02,3.856753540039063068e+02,3.859592590332031250e+02,3.862276611328125000e+02,3.864776306152343750e+02,3.867097167968751137e+02,3.869280395507813068e+02,3.871388244628905682e+02,3.873488159179688068e+02,3.875611572265625000e+02,3.877763061523437500e+02,3.879906005859375000e+02,3.881970214843751137e+02,3.883840332031249432e+02,3.885326843261719318e+02,3.886206665039063068e+02,3.887711486816406250e+02,3.889288330078125000e+02
3.870226440429688068e+02,3.869703979492188068e+02,3.869147338867188068e+02,3.868558044433593750e+02,3.867937011718751137e+02,3.867282104492188068e+02,3.866591186523437500e+02,3.865868530273437500e+02,3.865112609863280682e+02,3.864324645996093750e+02,3.863503723144531250e+02,3.862650146484375000e+02,3.861768188476562500e+02,3.860856933593751137e+02,3.859920043945313068e+02,3.858956298828125000e+02,3.857970275878905682e+02,3.856961975097656250e+02,3.855937194824217613e+02,3.854894714355468750e+02,3.853835144042968750e+02,3.852761230468751137e+02,3.851670532226562500e+02,3.850566101074217613e+02,3.849449768066406250e+02,3.848322448730468750e+02,3.847184753417968750e+02,3.846037902832031250e+02,3.844883728027343750e+02,3.843723144531249432e+02,3.842557678222656250e+02,3.841393737792968750e+02,3.840232543945313068e+02,3.839075622558593750e+02,3.837926025390625000e+02,3.836786193847656250e+02,3.835655517578125000e+02,3.834530029296875000e+02,3.833413391113280682e+02,3.832301330566406250e+02,3.831191406250000000e+02,3.830083007812500000e+02,3.828975524902343750e+02,3.827867736816406250e+02,3.826761169433593750e+02,3.825656127929688068e+02,3.824553222656249432e+02,3.823460693359375000e+02,3.822382507324217613e+02,3.821327209472656250e+02,3.820303039550780682e+02,3.819315795898437500e+02,3.818369445800780682e+02,3.817463073730468750e+02,3.816599121093751137e+02,3.815775451660156250e+02,3.814988403320313068e+02,3.814237976074217613e+02,3.813529357910156250e+02,3.812864990234375000e+02,3.812250366210937500e+02,3.811682128906249432e+02,3.811160278320313068e+02,3.810683898925780682e+02,3.810275268554688068e+02,3.810000000000000000e+02,3.809493408203125000e+02,3.808835449218751137e+02,3.808078308105468750e+02,3.807312927246093750e+02,3.806619567871093750e+02,3.806065063476562500e+02,3.805696716308593750e+02,3.805530090332031250e+02,3.805781860351562500e+02,3.806220703125000000e+02,3.806809997558593750e+02,3.807506408691406250e+02,3.808261413574217613e+02,3.809004516601562500e+02,3.809627990722656250e+02,3.810000915527343750e+02,3.810657043457031250e+02,3.811400451660156250e+02,3.812282714843751137e+02,3.813367919921875000e+02,3.814690246582031250e+02,3.816253662109375000e+02,3.818050842285156250e+02,3.820063781738280682e+02,3.822272338867188068e+02,3.824656677246093750e+02,3.827200927734375000e+02,3.829888610839843750e+02,3.832706604003905682e+02,3.835626831054688068e+02,3.838618469238280682e+02,3.841648254394531250e+02,3.844692687988280682e+02,3.847739868164063068e+02,3.850774841308593750e+02,3.853780212402343750e+02,3.856718750000000000e+02,3.859546508789063068e+02,3.862219238281249432e+02,3.864708557128905682e+02,3.867019348144531250e+02,3.869194946289063068e+02,3.871296997070313068e+02,3.873387756347656250e+02,3.875492248535156250e+02,3.877604064941406250e+02,3.879676208496093750e+02,3.881638183593751137e+02,3.883407287597656250e+02,3.884919128417968750e+02,3.886198120117188068e+02,3.887611999511719318e+02,3.889165344238280682e+02
3.871734619140625000e+02,3.871217041015625000e+02,3.870663757324217613e+02,3.870076904296875000e+02,3.869454650878905682e+02,3.868797607421875000e+02,3.868106384277343750e+02,3.867380065917968750e+02,3.866618957519531250e+02,3.865823974609375000e+02,3.864994201660156250e+02,3.864130249023437500e+02,3.863235778808593750e+02,3.862313842773437500e+02,3.861361389160156250e+02,3.860382690429688068e+02,3.859381103515625000e+02,3.858357238769531250e+02,3.857315368652343750e+02,3.856254577636719318e+02,3.855176086425780682e+02,3.854081420898437500e+02,3.852971191406249432e+02,3.851845703125000000e+02,3.850708923339843750e+02,3.849562377929688068e+02,3.848403625488280682e+02,3.847234497070313068e+02,3.846059570312500000e+02,3.844874877929688068e+02,3.843684997558593750e+02,3.842495117187500000e+02,3.841306152343751137e+02,3.840121459960937500e+02,3.838942565917968750e+02,3.837773742675780682e+02,3.836613464355468750e+02,3.835458679199217613e+02,3.834311828613280682e+02,3.833170471191406250e+02,3.832033081054688068e+02,3.830897827148437500e+02,3.829764099121093750e+02,3.828630981445313068e+02,3.827497863769531250e+02,3.826369018554688068e+02,3.825241088867188068e+02,3.824123840332031250e+02,3.823020324707031250e+02,3.821937561035156250e+02,3.820885314941406250e+02,3.819868774414063068e+02,3.818895568847656250e+02,3.817962341308593750e+02,3.817073364257813068e+02,3.816228027343751137e+02,3.815421752929688068e+02,3.814652404785156250e+02,3.813921813964843750e+02,3.813233337402343750e+02,3.812591247558593750e+02,3.811992187500000000e+02,3.811434020996093750e+02,3.810916137695313068e+02,3.810439147949217613e+02,3.810000915527343750e+02,3.809690551757813068e+02,3.809097900390625000e+02,3.808354797363280682e+02,3.807585449218751137e+02,3.806882019042968750e+02,3.806311340332031250e+02,3.805920715332031250e+02,3.805729064941406250e+02,3.805956115722656250e+02,3.806380310058593750e+02,3.806965332031249432e+02,3.807670288085937500e+02,3.808449707031249432e+02,3.809251403808593750e+02,3.809999389648437500e+02,3.810403137207031250e+02,3.811016540527343750e+02,3.811795043945313068e+02,3.812734375000000000e+02,3.813857727050780682e+02,3.815186767578125000e+02,3.816732177734375000e+02,3.818491516113280682e+02,3.820455932617188068e+02,3.822611083984375000e+02,3.824941711425780682e+02,3.827435913085937500e+02,3.830079956054688068e+02,3.832856445312500000e+02,3.835739440917968750e+02,3.838698425292968750e+02,3.841699829101562500e+02,3.844721679687500000e+02,3.847751159667968750e+02,3.850768432617188068e+02,3.853758850097656250e+02,3.856682128906249432e+02,3.859497985839843750e+02,3.862159729003905682e+02,3.864640808105468750e+02,3.866945800781249432e+02,3.869120483398437500e+02,3.871225585937500000e+02,3.873319091796875000e+02,3.875423278808593750e+02,3.877523498535156250e+02,3.879564514160156250e+02,3.881474304199217613e+02,3.883207092285156250e+02,3.884776916503905682e+02,3.886197509765625000e+02,3.887622985839843750e+02,3.889172058105468750e+02
3.873204345703125000e+02,3.872692871093751137e+02,3.872143249511719318e+02,3.871559143066406250e+02,3.870937805175780682e+02,3.870280761718751137e+02,3.869587097167968750e+02,3.868858642578125000e+02,3.868093566894531250e+02,3.867292480468751137e+02,3.866455688476562500e+02,3.865584411621093750e+02,3.864679870605468750e+02,3.863746337890625000e+02,3.862781982421875000e+02,3.861790771484375000e+02,3.860774230957031250e+02,3.859736022949217613e+02,3.858677978515625000e+02,3.857599792480468750e+02,3.856504516601562500e+02,3.855391235351562500e+02,3.854262390136719318e+02,3.853118591308593750e+02,3.851963195800780682e+02,3.850796813964843750e+02,3.849618530273437500e+02,3.848428955078125000e+02,3.847232360839843750e+02,3.846026611328125000e+02,3.844813537597656250e+02,3.843599548339843750e+02,3.842384948730468750e+02,3.841173706054688068e+02,3.839967041015625000e+02,3.838770141601562500e+02,3.837580871582031250e+02,3.836399536132813068e+02,3.835223083496093750e+02,3.834052124023437500e+02,3.832886962890625000e+02,3.831724853515625000e+02,3.830563659667968750e+02,3.829403381347656250e+02,3.828244018554688068e+02,3.827089233398437500e+02,3.825937194824217613e+02,3.824794921875000000e+02,3.823665466308593750e+02,3.822555847167968750e+02,3.821473083496093750e+02,3.820425415039063068e+02,3.819420776367188068e+02,3.818457946777343750e+02,3.817539062500000000e+02,3.816665954589843750e+02,3.815834960937500000e+02,3.815040893554688068e+02,3.814285583496093750e+02,3.813573303222656250e+02,3.812905883789063068e+02,3.812283020019531250e+02,3.811701965332031250e+02,3.811170959472656250e+02,3.810697326660156250e+02,3.810304260253905682e+02,3.809999694824217613e+02,3.809334106445313068e+02,3.808569030761719318e+02,3.807801208496093750e+02,3.807099304199217613e+02,3.806525268554688068e+02,3.806124877929688068e+02,3.805915527343751137e+02,3.806102600097656250e+02,3.806503295898437500e+02,3.807071228027343750e+02,3.807759094238280682e+02,3.808516845703125000e+02,3.809287109375000000e+02,3.810000305175780682e+02,3.810609436035156250e+02,3.811303100585937500e+02,3.812134094238280682e+02,3.813116455078125000e+02,3.814269104003905682e+02,3.815606994628905682e+02,3.817142028808593750e+02,3.818875122070313068e+02,3.820803222656249432e+02,3.822916870117188068e+02,3.825205078125000000e+02,3.827657775878905682e+02,3.830262145996093750e+02,3.833000793457031250e+02,3.835851440429688068e+02,3.838778991699217613e+02,3.841754760742188068e+02,3.844754333496093750e+02,3.847762145996093750e+02,3.850764465332031250e+02,3.853737792968751137e+02,3.856646423339843750e+02,3.859447937011719318e+02,3.862098083496093750e+02,3.864573974609375000e+02,3.866879882812500000e+02,3.869062500000000000e+02,3.871187133789063068e+02,3.873312988281249432e+02,3.875466613769531250e+02,3.877638854980468750e+02,3.879789733886719318e+02,3.881851196289063068e+02,3.883734741210937500e+02,3.885269470214843750e+02,3.886206970214843750e+02,3.887718505859375000e+02,3.889291687011719318e+02
3.874631652832031250e+02,3.874125671386719318e+02,3.873582458496093750e+02,3.873000793457031250e+02,3.872381286621093750e+02,3.871725158691406250e+02,3.871029968261719318e+02,3.870299987792968750e+02,3.869531250000000000e+02,3.868726806640625000e+02,3.867883911132813068e+02,3.867005920410156250e+02,3.866094970703125000e+02,3.865151367187500000e+02,3.864176330566406250e+02,3.863176269531249432e+02,3.862148742675780682e+02,3.861096191406249432e+02,3.860022583007813068e+02,3.858929138183593750e+02,3.857817077636719318e+02,3.856687316894531250e+02,3.855541381835937500e+02,3.854381713867188068e+02,3.853208923339843750e+02,3.852023010253905682e+02,3.850825805664063068e+02,3.849618225097656250e+02,3.848400573730468750e+02,3.847175903320313068e+02,3.845942382812500000e+02,3.844706115722656250e+02,3.843467102050780682e+02,3.842229614257813068e+02,3.840997924804688068e+02,3.839773864746093750e+02,3.838556518554688068e+02,3.837346496582031250e+02,3.836142578125000000e+02,3.834945068359375000e+02,3.833752136230468750e+02,3.832562255859375000e+02,3.831374816894531250e+02,3.830187072753905682e+02,3.829001159667968750e+02,3.827820129394531250e+02,3.826642761230468750e+02,3.825473632812500000e+02,3.824317321777343750e+02,3.823179931640625000e+02,3.822066955566406250e+02,3.820987243652343750e+02,3.819948425292968750e+02,3.818952026367188068e+02,3.817999572753905682e+02,3.817094726562500000e+02,3.816232910156249432e+02,3.815408935546875000e+02,3.814626464843751137e+02,3.813886718750000000e+02,3.813192443847656250e+02,3.812543945312500000e+02,3.811940002441406250e+02,3.811390075683593750e+02,3.810894165039063068e+02,3.810448913574217613e+02,3.810000000000000000e+02,3.809390869140625000e+02,3.808678894042968750e+02,3.807949218750000000e+02,3.807272644042968750e+02,3.806713256835937500e+02,3.806311645507813068e+02,3.806090698242188068e+02,3.806220092773437500e+02,3.806598510742188068e+02,3.807142639160156250e+02,3.807800598144531250e+02,3.808526000976562500e+02,3.809270935058593750e+02,3.810000000000000000e+02,3.810720520019531250e+02,3.811501464843751137e+02,3.812392578125000000e+02,3.813419494628905682e+02,3.814600219726562500e+02,3.815951538085937500e+02,3.817482299804688068e+02,3.819198608398437500e+02,3.821102600097656250e+02,3.823185424804688068e+02,3.825443115234375000e+02,3.827861022949217613e+02,3.830431213378905682e+02,3.833139038085937500e+02,3.835957946777343750e+02,3.838858337402343750e+02,3.841809082031249432e+02,3.844786071777343750e+02,3.847773742675780682e+02,3.850758972167968750e+02,3.853715209960937500e+02,3.856607666015625000e+02,3.859395751953125000e+02,3.862034301757813068e+02,3.864506835937500000e+02,3.866821289062500000e+02,3.869021606445313068e+02,3.871173706054688068e+02,3.873337707519531250e+02,3.875546569824217613e+02,3.877799377441406250e+02,3.880063171386719318e+02,3.882276916503905682e+02,3.884369506835937500e+02,3.886191101074217613e+02,3.887040100097656250e+02,3.888207397460937500e+02,3.889582214355468750e+02
3.876015014648437500e+02,3.875513305664063068e+02,3.874976806640625000e+02,3.874399414062500000e+02,3.873781738281249432e+02,3.873127136230468750e+02,3.872431640625000000e+02,3.871698913574217613e+02,3.870930175781249432e+02,3.870122070312500000e+02,3.869277038574217613e+02,3.868394165039063068e+02,3.867479248046875000e+02,3.866529541015625000e+02,3.865547790527343750e+02,3.864537963867188068e+02,3.863500061035156250e+02,3.862435302734375000e+02,3.861349487304688068e+02,3.860241394042968750e+02,3.859114074707031250e+02,3.857969360351562500e+02,3.856806640625000000e+02,3.855630798339843750e+02,3.854441223144531250e+02,3.853238220214843750e+02,3.852023925781249432e+02,3.850798950195313068e+02,3.849563903808593750e+02,3.848320312500000000e+02,3.847066955566406250e+02,3.845809631347656250e+02,3.844549865722656250e+02,3.843289184570313068e+02,3.842031555175780682e+02,3.840781555175780682e+02,3.839537353515625000e+02,3.838301086425780682e+02,3.837070617675780682e+02,3.835847778320313068e+02,3.834627380371093750e+02,3.833409118652343750e+02,3.832193908691406250e+02,3.830981750488280682e+02,3.829769592285156250e+02,3.828560485839843750e+02,3.827355957031249432e+02,3.826161193847656250e+02,3.824977722167968750e+02,3.823809814453125000e+02,3.822665100097656250e+02,3.821553649902343750e+02,3.820479125976562500e+02,3.819446105957031250e+02,3.818457946777343750e+02,3.817516479492188068e+02,3.816619873046875000e+02,3.815762634277343750e+02,3.814947204589843750e+02,3.814174804687500000e+02,3.813449096679688068e+02,3.812771301269531250e+02,3.812138366699217613e+02,3.811556396484375000e+02,3.811021423339843750e+02,3.810517883300780682e+02,3.810000000000000000e+02,3.809401855468751137e+02,3.808735046386719318e+02,3.808052673339843750e+02,3.807414855957031250e+02,3.806879882812500000e+02,3.806491394042968750e+02,3.806286010742188068e+02,3.806318664550780682e+02,3.806690979003905682e+02,3.807205505371093750e+02,3.807828979492188068e+02,3.808522033691406250e+02,3.809251403808593750e+02,3.810000000000000000e+02,3.810782165527343750e+02,3.811629638671875000e+02,3.812574462890625000e+02,3.813642578125000000e+02,3.814851074218751137e+02,3.816218872070313068e+02,3.817753295898437500e+02,3.819463195800780682e+02,3.821352539062500000e+02,3.823416137695313068e+02,3.825648803710937500e+02,3.828042602539063068e+02,3.830585937500000000e+02,3.833265686035156250e+02,3.836057739257813068e+02,3.838933410644531250e+02,3.841859436035156250e+02,3.844814758300780682e+02,3.847783813476562500e+02,3.850751037597656250e+02,3.853689270019531250e+02,3.856565246582031250e+02,3.859338073730468750e+02,3.861968688964843750e+02,3.864440612792968750e+02,3.866765441894531250e+02,3.868986511230468750e+02,3.871167297363280682e+02,3.873366699218751137e+02,3.875619812011719318e+02,3.877927551269531250e+02,3.880244445800780682e+02,3.882489013671875000e+02,3.884534606933593750e+02,3.886201782226562500e+02,3.887377929687500000e+02,3.888541259765625000e+02,3.889823913574217613e+02
3.877348632812500000e+02,3.876855163574217613e+02,3.876322937011719318e+02,3.875750732421875000e+02,3.875135498046875000e+02,3.874482727050780682e+02,3.873790893554688068e+02,3.873057861328125000e+02,3.872287597656249432e+02,3.871478576660156250e+02,3.870631408691406250e+02,3.869746704101562500e+02,3.868828735351562500e+02,3.867874755859375000e+02,3.866886291503905682e+02,3.865869445800780682e+02,3.864822998046875000e+02,3.863749694824217613e+02,3.862652587890625000e+02,3.861533508300780682e+02,3.860393371582031250e+02,3.859234008789063068e+02,3.858057250976562500e+02,3.856866149902343750e+02,3.855660400390625000e+02,3.854442138671875000e+02,3.853211669921875000e+02,3.851970214843751137e+02,3.850718078613280682e+02,3.849457397460937500e+02,3.848185729980468750e+02,3.846909484863280682e+02,3.845630493164063068e+02,3.844348754882813068e+02,3.843068237304688068e+02,3.841793518066406250e+02,3.840524597167968750e+02,3.839262390136719318e+02,3.838006591796875000e+02,3.836757812500000000e+02,3.835512084960937500e+02,3.834267578125000000e+02,3.833026428222656250e+02,3.831786499023437500e+02,3.830548095703125000e+02,3.829311218261719318e+02,3.828080444335937500e+02,3.826857299804688068e+02,3.825646057128905682e+02,3.824448242187500000e+02,3.823272094726562500e+02,3.822126464843751137e+02,3.821016235351562500e+02,3.819944763183593750e+02,3.818917236328125000e+02,3.817937011718751137e+02,3.817001647949217613e+02,3.816107177734375000e+02,3.815254821777343750e+02,3.814444885253905682e+02,3.813679809570313068e+02,3.812963867187500000e+02,3.812295227050780682e+02,3.811675109863280682e+02,3.811098632812500000e+02,3.810549926757813068e+02,3.810000000000000000e+02,3.809407043457031250e+02,3.808774414062500000e+02,3.808137817382813068e+02,3.807544250488280682e+02,3.807041320800780682e+02,3.806673278808593750e+02,3.806474914550780682e+02,3.806470642089843750e+02,3.806802062988280682e+02,3.807278747558593750e+02,3.807864990234375000e+02,3.808528137207031250e+02,3.809242553710937500e+02,3.810000000000000000e+02,3.810815734863280682e+02,3.811705322265625000e+02,3.812690124511719318e+02,3.813793029785156250e+02,3.815027770996093750e+02,3.816413879394531250e+02,3.817958679199217613e+02,3.819672241210937500e+02,3.821555786132813068e+02,3.823607482910156250e+02,3.825824584960937500e+02,3.828199462890625000e+02,3.830723266601562500e+02,3.833379516601562500e+02,3.836148376464843750e+02,3.839002685546875000e+02,3.841906433105468750e+02,3.844840087890625000e+02,3.847789001464843750e+02,3.850737304687500000e+02,3.853657531738280682e+02,3.856515808105468750e+02,3.859274902343751137e+02,3.861898193359375000e+02,3.864372253417968750e+02,3.866708068847656250e+02,3.868948669433593750e+02,3.871152343750000000e+02,3.873377075195313068e+02,3.875657043457031250e+02,3.877989196777343750e+02,3.880324401855468750e+02,3.882564697265625000e+02,3.884574890136719318e+02,3.886200561523437500e+02,3.887461242675780682e+02,3.888645935058593750e+02,3.889913330078125000e+02
3.878628540039063068e+02,3.878143310546875000e+02,3.877615661621093750e+02,3.877048950195313068e+02,3.876439208984375000e+02,3.875789489746093750e+02,3.875100402832031250e+02,3.874371337890625000e+02,3.873600769042968750e+02,3.872791137695313068e+02,3.871943664550780682e+02,3.871059875488280682e+02,3.870140686035156250e+02,3.869184570312500000e+02,3.868191528320313068e+02,3.867169494628905682e+02,3.866117248535156250e+02,3.865036315917968750e+02,3.863930053710937500e+02,3.862801513671875000e+02,3.861650085449217613e+02,3.860478210449217613e+02,3.859290466308593750e+02,3.858084411621093750e+02,3.856864929199217613e+02,3.855631408691406250e+02,3.854386596679688068e+02,3.853129577636719318e+02,3.851861572265625000e+02,3.850585327148437500e+02,3.849298706054688068e+02,3.848005676269531250e+02,3.846708068847656250e+02,3.845405883789063068e+02,3.844104309082031250e+02,3.842807617187500000e+02,3.841515197753905682e+02,3.840229187011719318e+02,3.838949279785156250e+02,3.837675476074217613e+02,3.836404418945313068e+02,3.835136108398437500e+02,3.833868713378905682e+02,3.832600708007813068e+02,3.831336059570313068e+02,3.830073852539063068e+02,3.828817138671875000e+02,3.827566833496093750e+02,3.826325683593751137e+02,3.825097961425780682e+02,3.823890686035156250e+02,3.822710571289063068e+02,3.821563110351562500e+02,3.820452880859375000e+02,3.819386596679688068e+02,3.818362731933593750e+02,3.817383422851562500e+02,3.816447143554688068e+02,3.815552062988280682e+02,3.814700012207031250e+02,3.813892517089843750e+02,3.813133544921875000e+02,3.812423400878905682e+02,3.811759948730468750e+02,3.811143493652343750e+02,3.810563049316406250e+02,3.810000000000000000e+02,3.809419555664063068e+02,3.808822021484375000e+02,3.808228149414063068e+02,3.807675476074217613e+02,3.807202148437500000e+02,3.806852722167968750e+02,3.806655883789063068e+02,3.806627502441406250e+02,3.806924438476562500e+02,3.807365112304688068e+02,3.807917175292968750e+02,3.808551330566406250e+02,3.809246826171875000e+02,3.809999694824217613e+02,3.810826110839843750e+02,3.811736145019531250e+02,3.812747497558593750e+02,3.813875427246093750e+02,3.815137939453125000e+02,3.816544799804688068e+02,3.818106079101562500e+02,3.819827270507813068e+02,3.821713562011719318e+02,3.823763427734375000e+02,3.825970764160156250e+02,3.828334045410156250e+02,3.830841979980468750e+02,3.833481750488280682e+02,3.836230163574217613e+02,3.839061584472656250e+02,3.841945190429688068e+02,3.844859924316406250e+02,3.847788696289063068e+02,3.850716857910156250e+02,3.853619079589843750e+02,3.856462097167968750e+02,3.859207763671875000e+02,3.861824951171875000e+02,3.864300842285156250e+02,3.866647644042968750e+02,3.868903198242188068e+02,3.871123352050780682e+02,3.873360290527343750e+02,3.875645751953125000e+02,3.877975769042968750e+02,3.880306396484375000e+02,3.882547912597656250e+02,3.884570007324217613e+02,3.886201477050780682e+02,3.887362365722656250e+02,3.888532104492188068e+02,3.889830017089843750e+02
3.879846801757813068e+02,3.879371032714843750e+02,3.878851623535156250e+02,3.878290100097656250e+02,3.877688598632813068e+02,3.877043151855468750e+02,3.876355895996093750e+02,3.875630187988280682e+02,3.874864196777343750e+02,3.874057922363280682e+02,3.873213195800780682e+02,3.872330322265625000e+02,3.871411132812500000e+02,3.870454101562500000e+02,3.869460754394531250e+02,3.868435058593751137e+02,3.867379150390625000e+02,3.866291809082031250e+02,3.865179443359375000e+02,3.864043273925780682e+02,3.862882385253905682e+02,3.861700439453125000e+02,3.860501098632813068e+02,3.859283752441406250e+02,3.858051147460937500e+02,3.856805419921875000e+02,3.855547485351562500e+02,3.854276428222656250e+02,3.852996520996093750e+02,3.851703796386719318e+02,3.850404052734375000e+02,3.849094238281249432e+02,3.847780151367188068e+02,3.846459960937500000e+02,3.845139465332031250e+02,3.843822021484375000e+02,3.842508239746093750e+02,3.841199645996093750e+02,3.839896545410156250e+02,3.838598937988280682e+02,3.837304077148437500e+02,3.836012268066406250e+02,3.834719543457031250e+02,3.833427429199217613e+02,3.832136840820313068e+02,3.830848693847656250e+02,3.829565124511719318e+02,3.828287353515625000e+02,3.827019348144531250e+02,3.825762023925780682e+02,3.824523315429688068e+02,3.823309020996093750e+02,3.822125854492188068e+02,3.820977478027343750e+02,3.819868774414063068e+02,3.818800659179688068e+02,3.817774963378905682e+02,3.816793212890625000e+02,3.815851135253905682e+02,3.814952392578125000e+02,3.814097290039063068e+02,3.813291320800780682e+02,3.812533874511719318e+02,3.811825561523437500e+02,3.811167602539063068e+02,3.810563354492188068e+02,3.810000000000000000e+02,3.809442749023437500e+02,3.808884277343751137e+02,3.808331604003905682e+02,3.807813720703125000e+02,3.807366638183593750e+02,3.807029418945313068e+02,3.806832275390625000e+02,3.806788940429688068e+02,3.807056579589843750e+02,3.807465820312500000e+02,3.807986450195313068e+02,3.808592834472656250e+02,3.809266357421875000e+02,3.810000000000000000e+02,3.810816345214843750e+02,3.811727294921875000e+02,3.812749633789063068e+02,3.813899841308593750e+02,3.815186462402343750e+02,3.816616821289063068e+02,3.818198242187500000e+02,3.819934997558593750e+02,3.821830749511719318e+02,3.823883056640625000e+02,3.826089782714843750e+02,3.828445739746093750e+02,3.830942687988280682e+02,3.833566894531249432e+02,3.836299438476562500e+02,3.839113159179688068e+02,3.841977233886719318e+02,3.844872741699217613e+02,3.847782592773437500e+02,3.850691528320313068e+02,3.853573303222656250e+02,3.856401062011719318e+02,3.859136657714843750e+02,3.861750488281249432e+02,3.864229431152343750e+02,3.866584777832031250e+02,3.868850708007813068e+02,3.871077575683593750e+02,3.873312988281249432e+02,3.875581970214843750e+02,3.877885437011719318e+02,3.880180664062500000e+02,3.882401123046875000e+02,3.884451293945313068e+02,3.886192321777343750e+02,3.887017822265625000e+02,3.888201293945313068e+02,3.889603881835937500e+02
3.880998840332031250e+02,3.880534667968751137e+02,3.880025634765625000e+02,3.879471435546875000e+02,3.878876953125000000e+02,3.878238525390625000e+02,3.877557678222656250e+02,3.876836547851562500e+02,3.876074523925780682e+02,3.875274658203125000e+02,3.874433593750000000e+02,3.873554077148437500e+02,3.872636718750000000e+02,3.871681213378905682e+02,3.870690002441406250e+02,3.869663696289063068e+02,3.868605651855468750e+02,3.867514648437500000e+02,3.866398010253905682e+02,3.865254821777343750e+02,3.864087219238280682e+02,3.862897338867188068e+02,3.861689453125000000e+02,3.860463256835937500e+02,3.859219665527343750e+02,3.857962646484375000e+02,3.856693115234375000e+02,3.855410461425780682e+02,3.854118652343751137e+02,3.852811889648437500e+02,3.851499023437500000e+02,3.850176086425780682e+02,3.848846130371093750e+02,3.847510681152343750e+02,3.846173706054688068e+02,3.844837036132813068e+02,3.843502807617188068e+02,3.842173767089843750e+02,3.840849609375000000e+02,3.839528198242188068e+02,3.838210449218751137e+02,3.836895446777343750e+02,3.835580749511719318e+02,3.834266052246093750e+02,3.832951660156249432e+02,3.831637878417968750e+02,3.830328369140625000e+02,3.829022827148437500e+02,3.827727050781249432e+02,3.826441955566406250e+02,3.825173034667968750e+02,3.823925476074217613e+02,3.822705383300780682e+02,3.821519775390625000e+02,3.820369567871093750e+02,3.819257202148437500e+02,3.818185119628905682e+02,3.817154846191406250e+02,3.816164550781249432e+02,3.815214233398437500e+02,3.814308471679688068e+02,3.813450317382813068e+02,3.812642517089843750e+02,3.811886291503905682e+02,3.811187744140625000e+02,3.810558166503905682e+02,3.810000000000000000e+02,3.809485168457031250e+02,3.808973083496093750e+02,3.808458251953125000e+02,3.807966918945313068e+02,3.807538452148437500e+02,3.807209167480468750e+02,3.807008666992188068e+02,3.806951599121093750e+02,3.807195434570313068e+02,3.807576293945313068e+02,3.808070373535156250e+02,3.808650207519531250e+02,3.809297180175780682e+02,3.810000000000000000e+02,3.810784301757813068e+02,3.811676635742188068e+02,3.812700195312500000e+02,3.813866577148437500e+02,3.815180053710937500e+02,3.816638488769531250e+02,3.818246765136719318e+02,3.820005798339843750e+02,3.821915893554688068e+02,3.823976440429688068e+02,3.826186523437500000e+02,3.828538818359375000e+02,3.831027832031249432e+02,3.833642883300780682e+02,3.836361694335937500e+02,3.839159240722656250e+02,3.842004699707031250e+02,3.844878540039063068e+02,3.847767333984375000e+02,3.850657348632813068e+02,3.853521728515625000e+02,3.856335449218751137e+02,3.859062805175780682e+02,3.861673278808593750e+02,3.864155273437500000e+02,3.866519165039063068e+02,3.868792419433593750e+02,3.871019592285156250e+02,3.873240051269531250e+02,3.875476379394531250e+02,3.877720947265625000e+02,3.879934692382813068e+02,3.882036132812500000e+02,3.883902282714843750e+02,3.885349731445313068e+02,3.886206665039063068e+02,3.887734069824217613e+02,3.889342651367188068e+02
3.882077026367188068e+02,3.881627197265625000e+02,3.881129150390625000e+02,3.880585937500000000e+02,3.880000305175780682e+02,3.879368896484375000e+02,3.878696899414063068e+02,3.877984619140625000e+02,3.877231750488280682e+02,3.876437988281249432e+02,3.875602722167968750e+02,3.874729003906249432e+02,3.873815917968751137e+02,3.872864685058593750e+02,3.871875305175780682e+02,3.870850524902343750e+02,3.869792785644531250e+02,3.868702392578125000e+02,3.867582702636719318e+02,3.866437072753905682e+02,3.865265197753905682e+02,3.864068603515625000e+02,3.862854919433593750e+02,3.861619567871093750e+02,3.860368041992188068e+02,3.859100952148437500e+02,3.857821960449217613e+02,3.856529541015625000e+02,3.855225219726562500e+02,3.853908081054688068e+02,3.852582702636719318e+02,3.851247253417968750e+02,3.849904174804688068e+02,3.848555908203125000e+02,3.847203369140625000e+02,3.845849914550780682e+02,3.844498901367188068e+02,3.843151245117188068e+02,3.841806945800780682e+02,3.840466003417968750e+02,3.839125976562500000e+02,3.837788391113280682e+02,3.836451721191406250e+02,3.835114746093751137e+02,3.833779907226562500e+02,3.832443237304688068e+02,3.831107482910156250e+02,3.829776611328125000e+02,3.828452453613280682e+02,3.827140197753905682e+02,3.825840454101562500e+02,3.824560546875000000e+02,3.823306884765625000e+02,3.822083435058593750e+02,3.820893554687500000e+02,3.819738464355468750e+02,3.818620605468751137e+02,3.817541809082031250e+02,3.816500854492188068e+02,3.815499267578125000e+02,3.814541625976562500e+02,3.813630065917968750e+02,3.812769775390625000e+02,3.811963806152343750e+02,3.811219177246093750e+02,3.810556945800780682e+02,3.810000000000000000e+02,3.809558715820313068e+02,3.809098815917968750e+02,3.808613586425780682e+02,3.808139038085937500e+02,3.807719116210937500e+02,3.807391967773437500e+02,3.807184143066406250e+02,3.807113952636719318e+02,3.807333374023437500e+02,3.807687988281249432e+02,3.808156127929688068e+02,3.808714294433593750e+02,3.809337463378905682e+02,3.810000000000000000e+02,3.810723266601562500e+02,3.811576843261719318e+02,3.812596435546875000e+02,3.813781738281249432e+02,3.815125427246093750e+02,3.816619262695313068e+02,3.818260498046875000e+02,3.820046691894531250e+02,3.821978149414063068e+02,3.824052429199217613e+02,3.826269226074217613e+02,3.828621520996093750e+02,3.831106872558593750e+02,3.833711242675780682e+02,3.836416931152343750e+02,3.839197082519531250e+02,3.842026367187500000e+02,3.844881591796875000e+02,3.847748718261719318e+02,3.850616760253905682e+02,3.853463745117188068e+02,3.856264648437500000e+02,3.858984680175780682e+02,3.861594238281249432e+02,3.864082641601562500e+02,3.866453247070313068e+02,3.868731384277343750e+02,3.870952148437500000e+02,3.873150939941406250e+02,3.875344543457031250e+02,3.877525634765625000e+02,3.879653930664063068e+02,3.881657714843751137e+02,3.883443603515625000e+02,3.884937133789063068e+02,3.886199035644531250e+02,3.887670593261719318e+02,3.889263305664063068e+02
3.883072204589843750e+02,3.882637329101562500e+02,3.882155761718751137e+02,3.881627807617188068e+02,3.881053466796875000e+02,3.880434570312500000e+02,3.879773559570313068e+02,3.879071655273437500e+02,3.878329162597656250e+02,3.877543334960937500e+02,3.876717224121093750e+02,3.875850830078125000e+02,3.874945678710937500e+02,3.873999938964843750e+02,3.873014526367188068e+02,3.871992797851562500e+02,3.870938415527343750e+02,3.869851989746093750e+02,3.868733520507813068e+02,3.867586059570313068e+02,3.866410522460937500e+02,3.865210876464843750e+02,3.863990478515625000e+02,3.862750549316406250e+02,3.861491699218751137e+02,3.860216064453125000e+02,3.858928527832031250e+02,3.857627258300780682e+02,3.856313781738280682e+02,3.854989318847656250e+02,3.853651733398437500e+02,3.852306823730468750e+02,3.850953063964843750e+02,3.849593200683593750e+02,3.848228759765625000e+02,3.846861877441406250e+02,3.845494689941406250e+02,3.844129943847656250e+02,3.842768249511719318e+02,3.841408691406249432e+02,3.840049438476562500e+02,3.838694152832031250e+02,3.837336730957031250e+02,3.835979614257813068e+02,3.834622192382813068e+02,3.833264160156249432e+02,3.831906127929688068e+02,3.830550842285156250e+02,3.829201049804688068e+02,3.827858581542968750e+02,3.826530456542968750e+02,3.825221557617188068e+02,3.823934020996093750e+02,3.822674865722656250e+02,3.821446838378905682e+02,3.820250244140625000e+02,3.819087219238280682e+02,3.817961730957031250e+02,3.816871337890625000e+02,3.815819702148437500e+02,3.814810180664063068e+02,3.813847961425780682e+02,3.812939453125000000e+02,3.812086486816406250e+02,3.811300048828125000e+02,3.810595092773437500e+02,3.810000305175780682e+02,3.809703979492188068e+02,3.809282836914063068e+02,3.808803100585937500e+02,3.808330078125000000e+02,3.807909851074217613e+02,3.807577209472656250e+02,3.807359924316406250e+02,3.807275085449217613e+02,3.807468566894531250e+02,3.807793579101562500e+02,3.808234252929688068e+02,3.808772277832031250e+02,3.809376831054688068e+02,3.810000305175780682e+02,3.810612487792968750e+02,3.811413879394531250e+02,3.812435607910156250e+02,3.813651428222656250e+02,3.815037231445313068e+02,3.816572265625000000e+02,3.818251037597656250e+02,3.820070495605468750e+02,3.822027587890625000e+02,3.824120788574217613e+02,3.826346435546875000e+02,3.828701782226562500e+02,3.831183166503905682e+02,3.833780517578125000e+02,3.836472167968751137e+02,3.839237365722656250e+02,3.842048034667968750e+02,3.844883422851562500e+02,3.847728576660156250e+02,3.850573425292968750e+02,3.853402099609375000e+02,3.856189270019531250e+02,3.858901672363280682e+02,3.861513061523437500e+02,3.864008178710937500e+02,3.866386108398437500e+02,3.868667297363280682e+02,3.870883483886719318e+02,3.873062133789063068e+02,3.875217285156249432e+02,3.877343139648437500e+02,3.879409790039063068e+02,3.881360168457031250e+02,3.883140258789063068e+02,3.884730224609375000e+02,3.886199645996093750e+02,3.887709045410156250e+02,3.889284057617188068e+02
3.883970642089843750e+02,3.883558654785156250e+02,3.883096313476562500e+02,3.882587280273437500e+02,3.882029418945313068e+02,3.881427001953125000e+02,3.880781555175780682e+02,3.880092163085937500e+02,3.879362792968751137e+02,3.878589782714843750e+02,3.877775573730468750e+02,3.876918334960937500e+02,3.876023254394531250e+02,3.875086364746093750e+02,3.874109497070313068e+02,3.873093872070313068e+02,3.872043457031249432e+02,3.870959167480468750e+02,3.869845275878905682e+02,3.868698120117188068e+02,3.867521972656249432e+02,3.866321105957031250e+02,3.865097351074217613e+02,3.863852539062500000e+02,3.862589721679688068e+02,3.861307678222656250e+02,3.860013122558593750e+02,3.858704833984375000e+02,3.857384948730468750e+02,3.856053466796875000e+02,3.854707336425780682e+02,3.853354492187500000e+02,3.851992797851562500e+02,3.850622558593751137e+02,3.849247741699217613e+02,3.847868957519531250e+02,3.846490478515625000e+02,3.845111694335937500e+02,3.843735046386719318e+02,3.842358398437500000e+02,3.840982971191406250e+02,3.839609680175780682e+02,3.838235778808593750e+02,3.836859130859375000e+02,3.835481567382813068e+02,3.834103088378905682e+02,3.832723999023437500e+02,3.831345825195313068e+02,3.829972534179688068e+02,3.828602905273437500e+02,3.827247619628905682e+02,3.825908203125000000e+02,3.824590454101562500e+02,3.823297729492188068e+02,3.822033691406249432e+02,3.820798950195313068e+02,3.819595031738280682e+02,3.818423767089843750e+02,3.817286071777343750e+02,3.816187438964843750e+02,3.815128173828125000e+02,3.814120483398437500e+02,3.813168640136719318e+02,3.812280578613280682e+02,3.811475830078125000e+02,3.810788879394531250e+02,3.810278320312500000e+02,3.810000000000000000e+02,3.809508972167968750e+02,3.809005432128905682e+02,3.808527526855468750e+02,3.808100891113280682e+02,3.807762451171875000e+02,3.807535400390625000e+02,3.807434997558593750e+02,3.807596435546875000e+02,3.807886047363280682e+02,3.808287658691406250e+02,3.808789367675780682e+02,3.809373474121093750e+02,3.809999389648437500e+02,3.810405578613280682e+02,3.811177368164063068e+02,3.812232360839843750e+02,3.813497619628905682e+02,3.814932250976562500e+02,3.816515808105468750e+02,3.818238525390625000e+02,3.820093078613280682e+02,3.822076110839843750e+02,3.824189453125000000e+02,3.826426086425780682e+02,3.828787231445313068e+02,3.831266479492188068e+02,3.833854370117188068e+02,3.836533203125000000e+02,3.839281311035156250e+02,3.842073364257813068e+02,3.844888000488280682e+02,3.847711486816406250e+02,3.850533447265625000e+02,3.853338928222656250e+02,3.856109924316406250e+02,3.858816528320313068e+02,3.861429138183593750e+02,3.863930053710937500e+02,3.866317443847656250e+02,3.868604736328125000e+02,3.870819396972656250e+02,3.872983093261719318e+02,3.875110778808593750e+02,3.877199707031249432e+02,3.879227600097656250e+02,3.881156311035156250e+02,3.882954101562500000e+02,3.884620666503905682e+02,3.886199645996093750e+02,3.887757568359375000e+02,3.889332275390625000e+02
3.884758605957031250e+02,3.884373168945313068e+02,3.883939208984375000e+02,3.883456420898437500e+02,3.882924194335937500e+02,3.882344055175780682e+02,3.881716308593751137e+02,3.881046142578125000e+02,3.880332641601562500e+02,3.879576721191406250e+02,3.878776855468751137e+02,3.877933349609375000e+02,3.877049865722656250e+02,3.876122131347656250e+02,3.875154724121093750e+02,3.874148559570313068e+02,3.873104248046875000e+02,3.872027282714843750e+02,3.870914611816406250e+02,3.869772033691406250e+02,3.868596801757813068e+02,3.867397155761719318e+02,3.866172180175780682e+02,3.864925842285156250e+02,3.863659057617188068e+02,3.862374572753905682e+02,3.861072998046875000e+02,3.859760131835937500e+02,3.858434753417968750e+02,3.857096557617188068e+02,3.855747070312500000e+02,3.854388427734375000e+02,3.853020324707031250e+02,3.851643676757813068e+02,3.850260314941406250e+02,3.848871765136719318e+02,3.847482299804688068e+02,3.846091613769531250e+02,3.844702758789063068e+02,3.843313598632813068e+02,3.841925048828125000e+02,3.840536499023437500e+02,3.839147949218751137e+02,3.837754211425780682e+02,3.836359863281249432e+02,3.834963073730468750e+02,3.833564758300780682e+02,3.832167358398437500e+02,3.830770568847656250e+02,3.829376831054688068e+02,3.827995605468751137e+02,3.826629333496093750e+02,3.825282592773437500e+02,3.823960266113280682e+02,3.822661743164063068e+02,3.821390686035156250e+02,3.820148010253905682e+02,3.818935546875000000e+02,3.817753906250000000e+02,3.816612243652343750e+02,3.815509643554688068e+02,3.814457092285156250e+02,3.813462219238280682e+02,3.812536315917968750e+02,3.811701049804688068e+02,3.810983886718751137e+02,3.810414428710937500e+02,3.810000305175780682e+02,3.809606628417968750e+02,3.809166259765625000e+02,3.808711853027343750e+02,3.808290710449217613e+02,3.807947998046875000e+02,3.807712707519531250e+02,3.807596435546875000e+02,3.807723388671875000e+02,3.807966918945313068e+02,3.808309326171875000e+02,3.808728332519531250e+02,3.809190063476562500e+02,3.809633789062500000e+02,3.810001220703125000e+02,3.810898742675780682e+02,3.812035217285156250e+02,3.813360595703125000e+02,3.814845275878905682e+02,3.816474914550780682e+02,3.818236999511719318e+02,3.820126953125000000e+02,3.822139282226562500e+02,3.824271850585937500e+02,3.826522216796875000e+02,3.828887023925780682e+02,3.831363830566406250e+02,3.833941345214843750e+02,3.836605224609375000e+02,3.839333190917968750e+02,3.842105102539063068e+02,3.844898071289063068e+02,3.847698974609375000e+02,3.850498352050780682e+02,3.853282165527343750e+02,3.856033935546875000e+02,3.858730773925780682e+02,3.861342773437500000e+02,3.863848266601562500e+02,3.866245117187500000e+02,3.868541564941406250e+02,3.870760498046875000e+02,3.872920227050780682e+02,3.875034179687500000e+02,3.877102966308593750e+02,3.879109802246093750e+02,3.881031188964843750e+02,3.882848510742188068e+02,3.884563293457031250e+02,3.886200561523437500e+02,3.887794799804688068e+02,3.889375305175780682e+02
3.885418395996093750e+02,3.885060119628905682e+02,3.884670104980468750e+02,3.884227600097656250e+02,3.883730163574217613e+02,3.883178100585937500e+02,3.882577514648437500e+02,3.881931762695313068e+02,3.881239318847656250e+02,3.880503540039063068e+02,3.879719238281249432e+02,3.878892517089843750e+02,3.878021850585937500e+02,3.877107849121093750e+02,3.876150817871093750e+02,3.875155639648437500e+02,3.874119567871093750e+02,3.873049621582031250e+02,3.871943359375000000e+02,3.870804443359375000e+02,3.869634094238280682e+02,3.868435974121093750e+02,3.867212829589843750e+02,3.865966796875000000e+02,3.864697875976562500e+02,3.863411865234375000e+02,3.862108459472656250e+02,3.860792846679688068e+02,3.859464111328125000e+02,3.858121643066406250e+02,3.856769409179688068e+02,3.855405883789063068e+02,3.854032287597656250e+02,3.852651062011719318e+02,3.851262512207031250e+02,3.849869689941406250e+02,3.848471984863280682e+02,3.847072448730468750e+02,3.845673828125000000e+02,3.844275512695313068e+02,3.842876281738280682e+02,3.841476440429688068e+02,3.840073242187500000e+02,3.838668212890625000e+02,3.837258300781249432e+02,3.835844116210937500e+02,3.834428710937500000e+02,3.833013000488280682e+02,3.831596374511719318e+02,3.830182495117188068e+02,3.828779296875000000e+02,3.827390136718751137e+02,3.826016845703125000e+02,3.824665832519531250e+02,3.823336791992188068e+02,3.822033691406249432e+02,3.820755920410156250e+02,3.819506835937500000e+02,3.818288269042968750e+02,3.817105102539063068e+02,3.815962219238280682e+02,3.814867553710937500e+02,3.813829345703125000e+02,3.812862854003905682e+02,3.811981201171875000e+02,3.811203613281249432e+02,3.810538024902343750e+02,3.810000305175780682e+02,3.809729919433593750e+02,3.809342346191406250e+02,3.808901062011719318e+02,3.808480529785156250e+02,3.808135375976562500e+02,3.807893981933593750e+02,3.807766113281249432e+02,3.807861022949217613e+02,3.808058471679688068e+02,3.808342895507813068e+02,3.808688049316406250e+02,3.809074401855468750e+02,3.809490966796875000e+02,3.810000000000000000e+02,3.810829772949217613e+02,3.811946105957031250e+02,3.813287353515625000e+02,3.814804077148437500e+02,3.816471557617188068e+02,3.818271179199217613e+02,3.820193176269531250e+02,3.822232360839843750e+02,3.824383544921875000e+02,3.826647338867188068e+02,3.829015502929688068e+02,3.831486511230468750e+02,3.834051513671875000e+02,3.836696777343751137e+02,3.839404907226562500e+02,3.842153015136719318e+02,3.844921875000000000e+02,3.847699279785156250e+02,3.850473937988280682e+02,3.853234558105468750e+02,3.855966491699217613e+02,3.858647766113280682e+02,3.861253356933593750e+02,3.863762817382813068e+02,3.866167907714843750e+02,3.868477478027343750e+02,3.870706787109375000e+02,3.872871093750000000e+02,3.874984741210937500e+02,3.877047729492188068e+02,3.879048156738280682e+02,3.880969543457031250e+02,3.882797546386719318e+02,3.884537963867188068e+02,3.886200561523437500e+02,3.887815551757813068e+02,3.889397888183593750e+02
3.885917358398437500e+02,3.885593566894531250e+02,3.885280761718751137e+02,3.884895935058593750e+02,3.884440917968751137e+02,3.883926391601562500e+02,3.883360290527343750e+02,3.882744140625000000e+02,3.882079467773437500e+02,3.881365966796875000e+02,3.880603332519531250e+02,3.879793701171875000e+02,3.878938293457031250e+02,3.878038635253905682e+02,3.877094726562500000e+02,3.876112365722656250e+02,3.875088500976562500e+02,3.874027404785156250e+02,3.872929077148437500e+02,3.871795654296875000e+02,3.870631103515625000e+02,3.869437561035156250e+02,3.868218688964843750e+02,3.866973571777343750e+02,3.865706176757813068e+02,3.864419860839843750e+02,3.863117675781249432e+02,3.861799621582031250e+02,3.860469055175780682e+02,3.859126281738280682e+02,3.857771911621093750e+02,3.856406860351562500e+02,3.855032348632813068e+02,3.853648986816406250e+02,3.852256774902343750e+02,3.850861206054688068e+02,3.849460449218751137e+02,3.848055419921875000e+02,3.846649780273437500e+02,3.845243530273437500e+02,3.843835754394531250e+02,3.842425842285156250e+02,3.841011962890625000e+02,3.839595947265625000e+02,3.838174743652343750e+02,3.836748657226562500e+02,3.835319519042968750e+02,3.833888549804688068e+02,3.832455139160156250e+02,3.831023559570313068e+02,3.829600219726562500e+02,3.828190612792968750e+02,3.826795349121093750e+02,3.825418701171875000e+02,3.824064331054688068e+02,3.822732238769531250e+02,3.821424865722656250e+02,3.820144042968751137e+02,3.818892211914063068e+02,3.817672729492188068e+02,3.816492614746093750e+02,3.815360107421875000e+02,3.814282531738280682e+02,3.813273620605468750e+02,3.812346191406249432e+02,3.811519165039063068e+02,3.810817260742188068e+02,3.810288085937500000e+02,3.810000000000000000e+02,3.809565429687500000e+02,3.809103698730468750e+02,3.808673095703125000e+02,3.808322753906249432e+02,3.808081665039063068e+02,3.807952270507813068e+02,3.808021850585937500e+02,3.808181457519531250e+02,3.808418884277343750e+02,3.808713378906249432e+02,3.809054870605468750e+02,3.809458923339843750e+02,3.810000000000000000e+02,3.810816345214843750e+02,3.811928100585937500e+02,3.813283081054688068e+02,3.814826660156249432e+02,3.816525268554688068e+02,3.818356628417968750e+02,3.820308227539063068e+02,3.822369995117188068e+02,3.824538269042968750e+02,3.826810913085937500e+02,3.829180297851562500e+02,3.831643676757813068e+02,3.834194946289063068e+02,3.836819763183593750e+02,3.839502258300780682e+02,3.842223205566406250e+02,3.844966735839843750e+02,3.847717590332031250e+02,3.850466308593751137e+02,3.853203430175780682e+02,3.855912170410156250e+02,3.858572692871093750e+02,3.861164855957031250e+02,3.863671875000000000e+02,3.866087341308593750e+02,3.868411254882813068e+02,3.870656738281249432e+02,3.872837524414063068e+02,3.874962158203125000e+02,3.877031555175780682e+02,3.879034729003905682e+02,3.880957336425780682e+02,3.882791748046875000e+02,3.884534912109375000e+02,3.886199951171875000e+02,3.887815551757813068e+02,3.889390258789063068e+02
3.886200561523437500e+02,3.885953063964843750e+02,3.885779724121093750e+02,3.885460510253905682e+02,3.885050964355468750e+02,3.884582214355468750e+02,3.884061279296875000e+02,3.883483886718751137e+02,3.882851562500000000e+02,3.882163696289063068e+02,3.881424560546875000e+02,3.880635986328125000e+02,3.879798583984375000e+02,3.878915710449217613e+02,3.877987976074217613e+02,3.877019653320313068e+02,3.876009826660156250e+02,3.874959716796875000e+02,3.873870239257813068e+02,3.872745361328125000e+02,3.871588134765625000e+02,3.870401916503905682e+02,3.869186706542968750e+02,3.867946166992188068e+02,3.866682128906249432e+02,3.865398864746093750e+02,3.864096984863280682e+02,3.862779846191406250e+02,3.861449890136719318e+02,3.860107727050780682e+02,3.858753967285156250e+02,3.857390747070313068e+02,3.856016845703125000e+02,3.854634704589843750e+02,3.853241577148437500e+02,3.851846008300780682e+02,3.850444030761719318e+02,3.849037780761719318e+02,3.847629089355468750e+02,3.846218261718751137e+02,3.844804687500000000e+02,3.843387451171875000e+02,3.841966552734375000e+02,3.840541687011719318e+02,3.839111328125000000e+02,3.837674560546875000e+02,3.836235351562500000e+02,3.834793395996093750e+02,3.833348083496093750e+02,3.831903076171875000e+02,3.830463867187500000e+02,3.829036560058593750e+02,3.827622070312500000e+02,3.826224670410156250e+02,3.824848632812500000e+02,3.823492736816406250e+02,3.822160644531249432e+02,3.820852661132813068e+02,3.819572753906249432e+02,3.818321838378905682e+02,3.817108764648437500e+02,3.815942687988280682e+02,3.814830322265625000e+02,3.813780212402343750e+02,3.812804565429688068e+02,3.811920776367188068e+02,3.811147460937500000e+02,3.810503234863280682e+02,3.810000305175780682e+02,3.809711914062500000e+02,3.809284057617188068e+02,3.808856201171875000e+02,3.808509216308593750e+02,3.808276367187500000e+02,3.808153686523437500e+02,3.808211059570313068e+02,3.808348693847656250e+02,3.808554077148437500e+02,3.808816223144531250e+02,3.809128417968751137e+02,3.809501342773437500e+02,3.809999694824217613e+02,3.810829162597656250e+02,3.811969909667968750e+02,3.813353576660156250e+02,3.814927978515625000e+02,3.816657104492188068e+02,3.818515319824217613e+02,3.820490112304688068e+02,3.822570190429688068e+02,3.824750671386719318e+02,3.827026672363280682e+02,3.829394531250000000e+02,3.831849365234375000e+02,3.834383239746093750e+02,3.836981811523437500e+02,3.839634704589843750e+02,3.842325439453125000e+02,3.845038757324217613e+02,3.847761535644531250e+02,3.850482788085937500e+02,3.853193359375000000e+02,3.855874938964843750e+02,3.858510437011719318e+02,3.861084594726562500e+02,3.863583984375000000e+02,3.866004943847656250e+02,3.868344116210937500e+02,3.870611877441406250e+02,3.872815551757813068e+02,3.874961242675780682e+02,3.877044067382813068e+02,3.879057312011719318e+02,3.880986328125000000e+02,3.882819519042968750e+02,3.884552612304688068e+02,3.886199951171875000e+02,3.887796325683593750e+02,3.889349365234375000e+02
3.886427612304688068e+02,3.886200561523437500e+02,3.886199951171875000e+02,3.885910644531249432e+02,3.885548095703125000e+02,3.885138549804688068e+02,3.884673156738280682e+02,3.884144592285156250e+02,3.883552246093751137e+02,3.882896728515625000e+02,3.882183227539063068e+02,3.881416625976562500e+02,3.880601196289063068e+02,3.879738769531249432e+02,3.878829956054688068e+02,3.877878723144531250e+02,3.876883544921875000e+02,3.875845947265625000e+02,3.874768676757813068e+02,3.873653564453125000e+02,3.872505493164063068e+02,3.871326904296875000e+02,3.870119018554688068e+02,3.868883972167968750e+02,3.867625427246093750e+02,3.866345520019531250e+02,3.865047912597656250e+02,3.863733825683593750e+02,3.862405395507813068e+02,3.861066284179688068e+02,3.859716186523437500e+02,3.858356018066406250e+02,3.856985778808593750e+02,3.855607299804688068e+02,3.854217529296875000e+02,3.852823486328125000e+02,3.851422729492188068e+02,3.850017700195313068e+02,3.848609313964843750e+02,3.847195129394531250e+02,3.845779113769531250e+02,3.844360046386719318e+02,3.842934875488280682e+02,3.841504821777343750e+02,3.840068969726562500e+02,3.838626403808593750e+02,3.837178649902343750e+02,3.835728454589843750e+02,3.834274902343751137e+02,3.832820739746093750e+02,3.831370239257813068e+02,3.829929504394531250e+02,3.828500366210937500e+02,3.827088623046875000e+02,3.825693664550780682e+02,3.824320068359375000e+02,3.822968139648437500e+02,3.821640014648437500e+02,3.820336303710937500e+02,3.819061889648437500e+02,3.817823181152343750e+02,3.816626586914063068e+02,3.815480041503905682e+02,3.814391479492188068e+02,3.813369445800780682e+02,3.812431030273437500e+02,3.811592407226562500e+02,3.810877380371093750e+02,3.810328979492188068e+02,3.810000000000000000e+02,3.809487609863280682e+02,3.809042358398437500e+02,3.808703613281249432e+02,3.808490600585937500e+02,3.808399353027343750e+02,3.808435974121093750e+02,3.808558044433593750e+02,3.808746032714843750e+02,3.808994445800780682e+02,3.809300537109375000e+02,3.809647216796875000e+02,3.810001220703125000e+02,3.810906066894531250e+02,3.812103881835937500e+02,3.813525695800780682e+02,3.815130004882813068e+02,3.816884155273437500e+02,3.818764648437500000e+02,3.820757446289063068e+02,3.822850341796875000e+02,3.825036926269531250e+02,3.827313232421875000e+02,3.829674682617188068e+02,3.832114868164063068e+02,3.834625854492188068e+02,3.837194519042968750e+02,3.839813232421875000e+02,3.842469787597656250e+02,3.845149230957031250e+02,3.847840270996093750e+02,3.850531921386719318e+02,3.853210754394531250e+02,3.855861206054688068e+02,3.858468627929688068e+02,3.861018981933593750e+02,3.863505554199217613e+02,3.865925903320313068e+02,3.868280334472656250e+02,3.870573120117188068e+02,3.872805480957031250e+02,3.874978027343751137e+02,3.877082824707031250e+02,3.879111328125000000e+02,3.881048278808593750e+02,3.882876586914063068e+02,3.884589843750000000e+02,3.886199951171875000e+02,3.887752990722656250e+02,3.889266357421875000e+02
3.886714172363280682e+02,3.886534118652343750e+02,3.886436767578125000e+02,3.886200561523437500e+02,3.885917968750000000e+02,3.885592041015625000e+02,3.885200195312500000e+02,3.884732360839843750e+02,3.884183044433593750e+02,3.883562011718751137e+02,3.882877502441406250e+02,3.882138671875000000e+02,3.881348266601562500e+02,3.880508728027343750e+02,3.879620971679688068e+02,3.878687438964843750e+02,3.877710266113280682e+02,3.876687011718751137e+02,3.875623474121093750e+02,3.874519958496093750e+02,3.873381347656249432e+02,3.872210693359375000e+02,3.871012268066406250e+02,3.869784545898437500e+02,3.868534240722656250e+02,3.867259521484375000e+02,3.865966186523437500e+02,3.864657287597656250e+02,3.863335266113280682e+02,3.862001037597656250e+02,3.860657348632813068e+02,3.859302978515625000e+02,3.857938232421875000e+02,3.856564636230468750e+02,3.855181884765625000e+02,3.853793334960937500e+02,3.852397766113280682e+02,3.850996704101562500e+02,3.849591369628905682e+02,3.848179626464843750e+02,3.846765136718751137e+02,3.845344848632813068e+02,3.843918457031249432e+02,3.842485656738280682e+02,3.841046447753905682e+02,3.839602050781249432e+02,3.838150939941406250e+02,3.836696777343751137e+02,3.835237426757813068e+02,3.833778991699217613e+02,3.832322082519531250e+02,3.830872497558593750e+02,3.829433593750000000e+02,3.828009643554688068e+02,3.826603393554688068e+02,3.825216369628905682e+02,3.823850708007813068e+02,3.822506713867188068e+02,3.821186218261719318e+02,3.819894409179688068e+02,3.818634948730468750e+02,3.817415161132813068e+02,3.816239624023437500e+02,3.815116882324217613e+02,3.814054260253905682e+02,3.813063049316406250e+02,3.812150573730468750e+02,3.811332092285156250e+02,3.810614013671875000e+02,3.810000305175780682e+02,3.809609375000000000e+02,3.809229736328125000e+02,3.808919677734375000e+02,3.808732910156249432e+02,3.808648681640625000e+02,3.808664550781249432e+02,3.808787231445313068e+02,3.808970031738280682e+02,3.809219360351562500e+02,3.809551391601562500e+02,3.809999694824217613e+02,3.810379638671875000e+02,3.811217346191406250e+02,3.812399902343751137e+02,3.813832397460937500e+02,3.815454711914063068e+02,3.817226257324217613e+02,3.819123229980468750e+02,3.821127319335937500e+02,3.823225708007813068e+02,3.825411987304688068e+02,3.827682189941406250e+02,3.830030822753905682e+02,3.832450866699217613e+02,3.834932861328125000e+02,3.837467651367188068e+02,3.840048522949217613e+02,3.842664794921875000e+02,3.845306091308593750e+02,3.847960205078125000e+02,3.850615844726562500e+02,3.853259582519531250e+02,3.855874938964843750e+02,3.858449707031249432e+02,3.860974426269531250e+02,3.863445739746093750e+02,3.865862731933593750e+02,3.868229064941406250e+02,3.870545654296875000e+02,3.872807617187500000e+02,3.875008544921875000e+02,3.877139282226562500e+02,3.879186401367188068e+02,3.881132812500000000e+02,3.882957153320313068e+02,3.884644775390625000e+02,3.886200561523437500e+02,3.887679138183593750e+02,3.889127197265625000e+02
3.887005920410156250e+02,3.886824340820313068e+02,3.886659545898437500e+02,3.886440429687500000e+02,3.886200561523437500e+02,3.885954589843751137e+02,3.885644226074217613e+02,3.885240783691406250e+02,3.884739685058593750e+02,3.884156494140625000e+02,3.883505554199217613e+02,3.882797241210937500e+02,3.882036132812500000e+02,3.881223754882813068e+02,3.880361633300780682e+02,3.879447631835937500e+02,3.878488464355468750e+02,3.877482910156249432e+02,3.876433715820313068e+02,3.875344543457031250e+02,3.874217224121093750e+02,3.873056335449217613e+02,3.871866455078125000e+02,3.870648193359375000e+02,3.869404907226562500e+02,3.868139648437500000e+02,3.866853942871093750e+02,3.865552368164063068e+02,3.864238281250000000e+02,3.862912597656249432e+02,3.861575622558593750e+02,3.860229187011719318e+02,3.858872985839843750e+02,3.857508544921875000e+02,3.856135559082031250e+02,3.854755554199217613e+02,3.853366394042968750e+02,3.851970214843751137e+02,3.850572814941406250e+02,3.849168701171875000e+02,3.847758483886719318e+02,3.846341552734375000e+02,3.844917297363280682e+02,3.843485717773437500e+02,3.842048034667968750e+02,3.840603942871093750e+02,3.839153137207031250e+02,3.837699279785156250e+02,3.836240234375000000e+02,3.834780578613280682e+02,3.833321533203125000e+02,3.831867370605468750e+02,3.830422973632813068e+02,3.828992614746093750e+02,3.827579650878905682e+02,3.826184387207031250e+02,3.824809875488280682e+02,3.823456420898437500e+02,3.822126464843751137e+02,3.820822753906249432e+02,3.819549560546875000e+02,3.818312988281249432e+02,3.817115478515625000e+02,3.815966491699217613e+02,3.814870300292968750e+02,3.813834533691406250e+02,3.812866516113280682e+02,3.811975097656249432e+02,3.811172790527343750e+02,3.810490722656249432e+02,3.810000000000000000e+02,3.809551696777343750e+02,3.809203491210937500e+02,3.809035034179688068e+02,3.808926696777343750e+02,3.808921508789063068e+02,3.809039306640625000e+02,3.809209899902343750e+02,3.809435729980468750e+02,3.809688110351562500e+02,3.810000305175780682e+02,3.810650329589843750e+02,3.811599121093751137e+02,3.812824096679688068e+02,3.814278869628905682e+02,3.815916748046875000e+02,3.817700500488280682e+02,3.819606018066406250e+02,3.821614074707031250e+02,3.823711547851562500e+02,3.825891113281249432e+02,3.828147277832031250e+02,3.830475158691406250e+02,3.832867126464843750e+02,3.835315856933593750e+02,3.837811889648437500e+02,3.840349121093751137e+02,3.842919616699217613e+02,3.845516357421875000e+02,3.848128356933593750e+02,3.850742797851562500e+02,3.853346252441406250e+02,3.855922851562500000e+02,3.858460998535156250e+02,3.860956420898437500e+02,3.863410034179688068e+02,3.865823364257813068e+02,3.868198547363280682e+02,3.870534362792968750e+02,3.872820739746093750e+02,3.875048217773437500e+02,3.877201232910156250e+02,3.879264526367188068e+02,3.881218872070313068e+02,3.883044128417968750e+02,3.884712524414063068e+02,3.886200561523437500e+02,3.887557983398437500e+02,3.888913879394531250e+02
3.887276916503905682e+02,3.887075500488280682e+02,3.886863708496093750e+02,3.886628417968751137e+02,3.886392822265625000e+02,3.886199951171875000e+02,3.885987243652343750e+02,3.885661926269531250e+02,3.885212707519531250e+02,3.884671630859375000e+02,3.884061279296875000e+02,3.883391418457031250e+02,3.882666015625000000e+02,3.881885375976562500e+02,3.881051025390625000e+02,3.880161437988280682e+02,3.879223022460937500e+02,3.878236389160156250e+02,3.877203674316406250e+02,3.876127319335937500e+02,3.875013427734375000e+02,3.873863830566406250e+02,3.872683105468751137e+02,3.871474914550780682e+02,3.870241088867188068e+02,3.868985900878905682e+02,3.867709045410156250e+02,3.866416931152343750e+02,3.865112915039063068e+02,3.863797607421875000e+02,3.862471008300780682e+02,3.861133728027343750e+02,3.859789733886719318e+02,3.858436889648437500e+02,3.857075500488280682e+02,3.855706787109375000e+02,3.854327697753905682e+02,3.852943725585937500e+02,3.851555175781249432e+02,3.850160217285156250e+02,3.848759460449217613e+02,3.847350769042968750e+02,3.845932617187500000e+02,3.844506530761719318e+02,3.843073425292968750e+02,3.841634216308593750e+02,3.840187683105468750e+02,3.838735656738280682e+02,3.837281799316406250e+02,3.835823974609375000e+02,3.834367065429688068e+02,3.832914123535156250e+02,3.831470031738280682e+02,3.830038757324217613e+02,3.828623352050780682e+02,3.827226867675780682e+02,3.825849609375000000e+02,3.824491577148437500e+02,3.823157958984375000e+02,3.821849060058593750e+02,3.820569152832031250e+02,3.819323120117188068e+02,3.818113403320313068e+02,3.816946716308593750e+02,3.815827636718751137e+02,3.814761657714843750e+02,3.813755493164063068e+02,3.812812805175780682e+02,3.811948242187500000e+02,3.811184997558593750e+02,3.810549926757813068e+02,3.810000000000000000e+02,3.809557189941406250e+02,3.809438171386719318e+02,3.809248962402343750e+02,3.809214172363280682e+02,3.809322204589843750e+02,3.809481506347656250e+02,3.809724731445313068e+02,3.810000000000000000e+02,3.810388488769531250e+02,3.811111145019531250e+02,3.812131042480468750e+02,3.813400268554688068e+02,3.814880065917968750e+02,3.816530761718751137e+02,3.818321533203125000e+02,3.820228881835937500e+02,3.822232360839843750e+02,3.824320068359375000e+02,3.826483154296875000e+02,3.828716735839843750e+02,3.831017150878905682e+02,3.833374938964843750e+02,3.835786132812500000e+02,3.838236694335937500e+02,3.840723266601562500e+02,3.843242187500000000e+02,3.845787963867188068e+02,3.848349609375000000e+02,3.850915832519531250e+02,3.853472595214843750e+02,3.856005859375000000e+02,3.858505859375000000e+02,3.860969848632813068e+02,3.863403930664063068e+02,3.865810241699217613e+02,3.868191528320313068e+02,3.870541076660156250e+02,3.872844848632813068e+02,3.875090026855468750e+02,3.877252807617188068e+02,3.879320983886719318e+02,3.881275939941406250e+02,3.883103942871093750e+02,3.884769897460937500e+02,3.886201171875000000e+02,3.887351379394531250e+02,3.888597412109375000e+02
3.887532653808593750e+02,3.887306823730468750e+02,3.887056579589843750e+02,3.886776123046875000e+02,3.886476135253905682e+02,3.886200866699217613e+02,3.886199951171875000e+02,3.885982055664063068e+02,3.885587768554688068e+02,3.885098571777343750e+02,3.884542236328125000e+02,3.883921508789063068e+02,3.883239135742188068e+02,3.882495727539063068e+02,3.881691894531249432e+02,3.880830383300780682e+02,3.879913635253905682e+02,3.878946838378905682e+02,3.877931213378905682e+02,3.876870117187500000e+02,3.875770263671875000e+02,3.874631042480468750e+02,3.873462524414063068e+02,3.872265319824217613e+02,3.871041870117188068e+02,3.869795532226562500e+02,3.868529968261719318e+02,3.867249755859375000e+02,3.865957336425780682e+02,3.864653015136719318e+02,3.863339233398437500e+02,3.862015991210937500e+02,3.860686340332031250e+02,3.859348449707031250e+02,3.858002014160156250e+02,3.856647644042968750e+02,3.855284729003905682e+02,3.853914794921875000e+02,3.852538757324217613e+02,3.851155395507813068e+02,3.849765319824217613e+02,3.848368530273437500e+02,3.846962280273437500e+02,3.845545654296875000e+02,3.844123229980468750e+02,3.842692260742188068e+02,3.841253662109375000e+02,3.839808959960937500e+02,3.838360595703125000e+02,3.836909790039063068e+02,3.835458984375000000e+02,3.834012756347656250e+02,3.832573852539063068e+02,3.831147155761719318e+02,3.829735412597656250e+02,3.828340759277343750e+02,3.826966857910156250e+02,3.825612182617188068e+02,3.824280700683593750e+02,3.822973327636719318e+02,3.821694335937500000e+02,3.820446166992188068e+02,3.819231872558593750e+02,3.818058776855468750e+02,3.816928710937500000e+02,3.815845947265625000e+02,3.814816894531249432e+02,3.813841247558593750e+02,3.812925720214843750e+02,3.812078552246093750e+02,3.811303710937500000e+02,3.810587158203125000e+02,3.810001220703125000e+02,3.809999389648437500e+02,3.809607238769531250e+02,3.809541015625000000e+02,3.809643554687500000e+02,3.809741821289063068e+02,3.809999694824217613e+02,3.810313415527343750e+02,3.810877380371093750e+02,3.811726684570313068e+02,3.812831420898437500e+02,3.814150390625000000e+02,3.815654907226562500e+02,3.817313537597656250e+02,3.819102478027343750e+02,3.821001281738280682e+02,3.822990417480468750e+02,3.825059814453125000e+02,3.827199096679688068e+02,3.829402160644531250e+02,3.831665954589843750e+02,3.833982543945313068e+02,3.836345520019531250e+02,3.838745422363280682e+02,3.841176452636719318e+02,3.843636779785156250e+02,3.846125183105468750e+02,3.848629760742188068e+02,3.851141052246093750e+02,3.853644714355468750e+02,3.856128540039063068e+02,3.858585815429688068e+02,3.861016845703125000e+02,3.863428649902343750e+02,3.865825805664063068e+02,3.868206787109375000e+02,3.870560302734375000e+02,3.872871704101562500e+02,3.875119934082031250e+02,3.877276306152343750e+02,3.879327087402343750e+02,3.881258850097656250e+02,3.883063354492188068e+02,3.884729919433593750e+02,3.886195068359375000e+02,3.886967163085937500e+02,3.888150329589843750e+02
3.887778320312500000e+02,3.887535705566406250e+02,3.887263488769531250e+02,3.886968688964843750e+02,3.886673278808593750e+02,3.886434326171875000e+02,3.886351928710937500e+02,3.886199951171875000e+02,3.885851135253905682e+02,3.885432739257813068e+02,3.884949951171875000e+02,3.884391784667968750e+02,3.883759155273437500e+02,3.883056945800780682e+02,3.882288208007813068e+02,3.881455383300780682e+02,3.880562438964843750e+02,3.879615173339843750e+02,3.878617248535156250e+02,3.877571716308593750e+02,3.876485290527343750e+02,3.875360107421875000e+02,3.874204101562500000e+02,3.873019104003905682e+02,3.871808471679688068e+02,3.870574340820313068e+02,3.869321594238280682e+02,3.868052673339843750e+02,3.866774291992188068e+02,3.865484008789063068e+02,3.864184875488280682e+02,3.862877807617188068e+02,3.861566467285156250e+02,3.860245056152343750e+02,3.858915405273437500e+02,3.857578125000000000e+02,3.856233520507813068e+02,3.854879760742188068e+02,3.853520507812500000e+02,3.852154235839843750e+02,3.850780029296875000e+02,3.849396972656249432e+02,3.848006286621093750e+02,3.846604003906249432e+02,3.845194091796875000e+02,3.843775939941406250e+02,3.842349243164063068e+02,3.840914611816406250e+02,3.839477539062500000e+02,3.838037719726562500e+02,3.836598510742188068e+02,3.835163574218751137e+02,3.833734741210937500e+02,3.832317504882813068e+02,3.830914916992188068e+02,3.829529418945313068e+02,3.828163146972656250e+02,3.826817016601562500e+02,3.825495300292968750e+02,3.824198303222656250e+02,3.822925109863280682e+02,3.821681518554688068e+02,3.820472412109375000e+02,3.819301757812500000e+02,3.818171691894531250e+02,3.817087097167968750e+02,3.816050720214843750e+02,3.815062561035156250e+02,3.814118041992188068e+02,3.813222045898437500e+02,3.812378540039063068e+02,3.811595458984375000e+02,3.810936279296875000e+02,3.810528259277343750e+02,3.810001831054688068e+02,3.809999694824217613e+02,3.810000000000000000e+02,3.809999694824217613e+02,3.810001525878905682e+02,3.810683288574217613e+02,3.811535339355468750e+02,3.812551269531249432e+02,3.813744201660156250e+02,3.815107727050780682e+02,3.816626892089843750e+02,3.818281860351562500e+02,3.820057067871093750e+02,3.821936035156249432e+02,3.823901367187500000e+02,3.825941772460937500e+02,3.828045349121093750e+02,3.830210266113280682e+02,3.832429809570313068e+02,3.834696655273437500e+02,3.837003479003905682e+02,3.839344177246093750e+02,3.841712341308593750e+02,3.844106750488280682e+02,3.846530151367188068e+02,3.848972167968751137e+02,3.851421203613280682e+02,3.853865661621093750e+02,3.856295166015625000e+02,3.858703613281249432e+02,3.861098632812500000e+02,3.863484497070313068e+02,3.865865173339843750e+02,3.868239135742188068e+02,3.870591735839843750e+02,3.872897644042968750e+02,3.875129699707031250e+02,3.877262878417968750e+02,3.879271240234375000e+02,3.881137390136719318e+02,3.882835083007813068e+02,3.884318237304688068e+02,3.885477600097656250e+02,3.886205139160156250e+02,3.887631835937500000e+02
3.888017883300780682e+02,3.887767333984375000e+02,3.887489013671875000e+02,3.887193603515625000e+02,3.886903991699217613e+02,3.886649475097656250e+02,3.886446228027343750e+02,3.886200561523437500e+02,3.885990600585937500e+02,3.885691833496093750e+02,3.885302124023437500e+02,3.884812622070313068e+02,3.884234008789063068e+02,3.883575134277343750e+02,3.882842102050780682e+02,3.882039489746093750e+02,3.881171264648437500e+02,3.880246887207031250e+02,3.879264526367188068e+02,3.878234863281249432e+02,3.877162475585937500e+02,3.876052246093751137e+02,3.874907836914063068e+02,3.873736572265625000e+02,3.872539978027343750e+02,3.871321105957031250e+02,3.870083312988280682e+02,3.868829650878905682e+02,3.867565917968751137e+02,3.866291809082031250e+02,3.865009155273437500e+02,3.863720397949217613e+02,3.862426147460937500e+02,3.861123962402343750e+02,3.859813537597656250e+02,3.858497619628905682e+02,3.857172546386719318e+02,3.855840454101562500e+02,3.854502563476562500e+02,3.853154907226562500e+02,3.851799926757813068e+02,3.850434875488280682e+02,3.849063110351562500e+02,3.847680358886719318e+02,3.846288757324217613e+02,3.844886169433593750e+02,3.843474426269531250e+02,3.842056274414063068e+02,3.840634155273437500e+02,3.839209899902343750e+02,3.837786254882813068e+02,3.836365661621093750e+02,3.834952697753905682e+02,3.833549804687500000e+02,3.832162170410156250e+02,3.830789794921875000e+02,3.829438171386719318e+02,3.828107604980468750e+02,3.826800537109375000e+02,3.825516967773437500e+02,3.824259338378905682e+02,3.823028564453125000e+02,3.821832580566406250e+02,3.820672607421875000e+02,3.819553833007813068e+02,3.818479309082031250e+02,3.817451782226562500e+02,3.816469726562500000e+02,3.815527648925780682e+02,3.814626464843751137e+02,3.813770751953125000e+02,3.812975158691406250e+02,3.812275695800780682e+02,3.811718139648437500e+02,3.811238708496093750e+02,3.811068115234375000e+02,3.810994873046875000e+02,3.810992736816406250e+02,3.811137390136719318e+02,3.811760559082031250e+02,3.812644042968751137e+02,3.813706665039063068e+02,3.814929199218751137e+02,3.816302795410156250e+02,3.817814636230468750e+02,3.819449768066406250e+02,3.821198730468751137e+02,3.823044433593751137e+02,3.824972229003905682e+02,3.826970825195313068e+02,3.829030761718751137e+02,3.831147155761719318e+02,3.833312377929688068e+02,3.835520324707031250e+02,3.837762451171875000e+02,3.840035705566406250e+02,3.842332153320313068e+02,3.844656066894531250e+02,3.847007751464843750e+02,3.849378356933593750e+02,3.851759033203125000e+02,3.854137878417968750e+02,3.856506652832031250e+02,3.858864135742188068e+02,3.861216125488280682e+02,3.863569946289063068e+02,3.865929565429688068e+02,3.868288269042968750e+02,3.870625305175780682e+02,3.872915954589843750e+02,3.875124206542968750e+02,3.877218322753905682e+02,3.879174499511719318e+02,3.880971679687500000e+02,3.882584228515625000e+02,3.883984680175780682e+02,3.885157775878905682e+02,3.886199035644531250e+02,3.887512817382813068e+02
3.888247680664063068e+02,3.887995605468751137e+02,3.887719726562500000e+02,3.887429504394531250e+02,3.887144775390625000e+02,3.886878356933593750e+02,3.886637573242188068e+02,3.886402587890625000e+02,3.886200561523437500e+02,3.885952758789063068e+02,3.885633850097656250e+02,3.885201416015625000e+02,3.884670104980468750e+02,3.884052429199217613e+02,3.883356018066406250e+02,3.882584228515625000e+02,3.881742553710937500e+02,3.880837707519531250e+02,3.879872741699217613e+02,3.878858032226562500e+02,3.877800292968751137e+02,3.876704711914063068e+02,3.875576171875000000e+02,3.874418945312500000e+02,3.873236694335937500e+02,3.872034606933593750e+02,3.870814819335937500e+02,3.869577331542968750e+02,3.868330993652343750e+02,3.867074890136719318e+02,3.865811462402343750e+02,3.864542541503905682e+02,3.863267211914063068e+02,3.861986389160156250e+02,3.860699768066406250e+02,3.859407653808593750e+02,3.858106384277343750e+02,3.856799011230468750e+02,3.855483398437500000e+02,3.854158020019531250e+02,3.852825622558593750e+02,3.851483764648437500e+02,3.850132446289063068e+02,3.848772888183593750e+02,3.847402648925780682e+02,3.846020202636719318e+02,3.844627380371093750e+02,3.843227844238280682e+02,3.841825561523437500e+02,3.840421142578125000e+02,3.839017944335937500e+02,3.837617187500000000e+02,3.836224365234375000e+02,3.834841003417968750e+02,3.833471679687500000e+02,3.832119140625000000e+02,3.830787658691406250e+02,3.829477233886719318e+02,3.828191223144531250e+02,3.826929321289063068e+02,3.825692443847656250e+02,3.824481811523437500e+02,3.823305358886719318e+02,3.822165222167968750e+02,3.821066589355468750e+02,3.820014343261719318e+02,3.819009704589843750e+02,3.818050842285156250e+02,3.817137145996093750e+02,3.816263122558593750e+02,3.815434875488280682e+02,3.814664916992188068e+02,3.813976135253905682e+02,3.813396606445313068e+02,3.812940979003905682e+02,3.812685546875000000e+02,3.812569580078125000e+02,3.812587280273437500e+02,3.812807006835937500e+02,3.813363952636719318e+02,3.814187927246093750e+02,3.815213012695313068e+02,3.816406250000000000e+02,3.817748718261719318e+02,3.819224548339843750e+02,3.820820617675780682e+02,3.822524719238280682e+02,3.824323120117188068e+02,3.826203002929688068e+02,3.828149414062500000e+02,3.830154724121093750e+02,3.832211608886719318e+02,3.834313354492188068e+02,3.836454162597656250e+02,3.838624267578125000e+02,3.840821228027343750e+02,3.843040771484375000e+02,3.845287170410156250e+02,3.847560119628905682e+02,3.849852600097656250e+02,3.852156982421875000e+02,3.854461669921875000e+02,3.856765136718751137e+02,3.859065551757813068e+02,3.861370239257813068e+02,3.863685607910156250e+02,3.866014404296875000e+02,3.868345947265625000e+02,3.870659484863280682e+02,3.872921752929688068e+02,3.875096130371093750e+02,3.877150268554688068e+02,3.879060058593751137e+02,3.880806579589843750e+02,3.882375183105468750e+02,3.883765869140625000e+02,3.885009460449217613e+02,3.886199951171875000e+02,3.887503051757813068e+02
3.888462219238280682e+02,3.888214721679688068e+02,3.887945556640625000e+02,3.887662963867188068e+02,3.887382812500000000e+02,3.887114562988280682e+02,3.886865234375000000e+02,3.886632385253905682e+02,3.886421813964843750e+02,3.886200561523437500e+02,3.885944824218751137e+02,3.885551147460937500e+02,3.885063476562500000e+02,3.884489135742188068e+02,3.883833007812500000e+02,3.883092651367188068e+02,3.882276916503905682e+02,3.881392822265625000e+02,3.880446472167968750e+02,3.879447021484375000e+02,3.878403930664063068e+02,3.877321777343751137e+02,3.876208190917968750e+02,3.875066223144531250e+02,3.873901977539063068e+02,3.872716369628905682e+02,3.871514282226562500e+02,3.870296936035156250e+02,3.869069824218751137e+02,3.867834777832031250e+02,3.866592712402343750e+02,3.865344848632813068e+02,3.864093017578125000e+02,3.862835998535156250e+02,3.861575012207031250e+02,3.860308532714843750e+02,3.859033813476562500e+02,3.857750854492188068e+02,3.856461181640625000e+02,3.855164184570313068e+02,3.853858947753905682e+02,3.852543334960937500e+02,3.851216430664063068e+02,3.849881591796875000e+02,3.848535461425780682e+02,3.847176818847656250e+02,3.845808410644531250e+02,3.844434509277343750e+02,3.843054809570313068e+02,3.841674499511719318e+02,3.840295410156249432e+02,3.838918762207031250e+02,3.837549743652343750e+02,3.836190185546875000e+02,3.834845275878905682e+02,3.833516845703125000e+02,3.832210083007813068e+02,3.830924682617188068e+02,3.829664001464843750e+02,3.828428649902343750e+02,3.827219238281249432e+02,3.826035461425780682e+02,3.824885559082031250e+02,3.823772583007813068e+02,3.822701721191406250e+02,3.821679992675780682e+02,3.820708312988280682e+02,3.819787597656249432e+02,3.818916320800780682e+02,3.818090209960937500e+02,3.817315063476562500e+02,3.816597595214843750e+02,3.815953674316406250e+02,3.815405578613280682e+02,3.814975280761719318e+02,3.814697570800780682e+02,3.814566955566406250e+02,3.814597473144531250e+02,3.814830932617188068e+02,3.815331115722656250e+02,3.816076049804688068e+02,3.817027587890625000e+02,3.818155212402343750e+02,3.819435119628905682e+02,3.820851135253905682e+02,3.822387695312500000e+02,3.824031982421875000e+02,3.825769958496093750e+02,3.827586364746093750e+02,3.829470520019531250e+02,3.831412048339843750e+02,3.833401184082031250e+02,3.835430908203125000e+02,3.837496643066406250e+02,3.839586791992188068e+02,3.841702270507813068e+02,3.843840332031249432e+02,3.846001586914063068e+02,3.848188476562500000e+02,3.850394897460937500e+02,3.852616271972656250e+02,3.854842224121093750e+02,3.857072143554688068e+02,3.859307556152343750e+02,3.861559448242188068e+02,3.863828125000000000e+02,3.866116333007813068e+02,3.868410644531249432e+02,3.870686340332031250e+02,3.872908935546875000e+02,3.875044555664063068e+02,3.877060241699217613e+02,3.878932800292968750e+02,3.880650329589843750e+02,3.882208557128905682e+02,3.883621520996093750e+02,3.884929504394531250e+02,3.886199951171875000e+02,3.887514953613280682e+02
3.888661804199217613e+02,3.888419189453125000e+02,3.888158569335937500e+02,3.887883300781249432e+02,3.887608032226562500e+02,3.887340698242188068e+02,3.887085571289063068e+02,3.886846618652343750e+02,3.886623535156249432e+02,3.886411132812500000e+02,3.886199951171875000e+02,3.885830078125000000e+02,3.885398864746093750e+02,3.884882507324217613e+02,3.884270629882813068e+02,3.883565063476562500e+02,3.882775573730468750e+02,3.881913452148437500e+02,3.880983886718751137e+02,3.880001220703125000e+02,3.878973083496093750e+02,3.877906188964843750e+02,3.876807556152343750e+02,3.875682983398437500e+02,3.874535522460937500e+02,3.873368530273437500e+02,3.872183532714843750e+02,3.870987243652343750e+02,3.869779968261719318e+02,3.868567504882813068e+02,3.867349548339843750e+02,3.866126708984375000e+02,3.864899902343751137e+02,3.863670349121093750e+02,3.862436523437500000e+02,3.861199035644531250e+02,3.859952392578125000e+02,3.858698730468751137e+02,3.857440490722656250e+02,3.856173706054688068e+02,3.854897155761719318e+02,3.853611145019531250e+02,3.852314147949217613e+02,3.851005249023437500e+02,3.849686279296875000e+02,3.848355407714843750e+02,3.847018127441406250e+02,3.845669555664063068e+02,3.844317932128905682e+02,3.842965698242188068e+02,3.841615600585937500e+02,3.840267333984375000e+02,3.838926391601562500e+02,3.837594909667968750e+02,3.836278991699217613e+02,3.834980163574217613e+02,3.833701782226562500e+02,3.832446289062500000e+02,3.831215515136719318e+02,3.830010986328125000e+02,3.828832702636719318e+02,3.827683105468751137e+02,3.826566772460937500e+02,3.825487976074217613e+02,3.824451904296875000e+02,3.823464660644531250e+02,3.822532043457031250e+02,3.821656188964843750e+02,3.820837707519531250e+02,3.820070495605468750e+02,3.819359741210937500e+02,3.818708801269531250e+02,3.818126525878905682e+02,3.817629394531249432e+02,3.817237243652343750e+02,3.816972656250000000e+02,3.816846618652343750e+02,3.816881713867188068e+02,3.817106323242188068e+02,3.817554321289063068e+02,3.818222045898437500e+02,3.819089050292968750e+02,3.820135192871093750e+02,3.821336059570313068e+02,3.822675781250000000e+02,3.824137268066406250e+02,3.825708923339843750e+02,3.827374267578125000e+02,3.829119262695313068e+02,3.830930786132813068e+02,3.832797241210937500e+02,3.834710083007813068e+02,3.836659851074217613e+02,3.838641662597656250e+02,3.840647583007813068e+02,3.842674865722656250e+02,3.844724731445313068e+02,3.846795654296875000e+02,3.848890380859375000e+02,3.851004943847656250e+02,3.853136291503905682e+02,3.855278625488280682e+02,3.857430114746093750e+02,3.859594726562500000e+02,3.861783447265625000e+02,3.863997192382813068e+02,3.866234130859375000e+02,3.868476867675780682e+02,3.870701599121093750e+02,3.872877197265625000e+02,3.874968872070313068e+02,3.876947021484375000e+02,3.878794250488280682e+02,3.880499877929688068e+02,3.882066955566406250e+02,3.883515625000000000e+02,3.884877624511719318e+02,3.886199951171875000e+02,3.887530517578125000e+02
