1.896481054457445907e+02,1.897535850079062243e+02,1.898715185485394841e+02,1.899941416197183912e+02,1.901150046811336551e+02,1.902300968875738363e+02,1.903360456317569458e+02,1.904325401249915330e+02,1.905216312211879028e+02,1.906085250534591751e+02,1.906979599157748737e+02,1.907954737431820718e+02,1.909045945017175256e+02,1.910224544575908112e+02,1.911430096711857800e+02,1.912560727357766837e+02,1.913525318439521357e+02,1.914202855338424740e+02,1.914498398425018593e+02,1.914376647449756206e+02,1.913867829697915681e+02,1.913060086801741591e+02,1.912063772821820180e+02,1.911015634440295514e+02,1.910033981529866480e+02,1.909206620182768575e+02,1.908568257543587947e+02,1.908112911236786999e+02,1.907801717301880728e+02,1.907577990946580826e+02,1.907386115507855209e+02,1.907172474397549422e+02,1.906890631041333961e+02,1.906499443909323475e+02,1.905964708098806568e+02,1.905259490875529877e+02,1.904364844256063520e+02,1.903278099328246356e+02,1.902016193367313974e+02,1.900608506159657054e+02,1.899088359293729127e+02,1.897496348865280140e+02,1.895871532063438565e+02,1.894252823197017506e+02,1.892663089956416798e+02,1.891120759026805445e+02,1.889636825841875520e+02,1.888209013931202378e+02,1.886838629515961543e+02,1.885522594848195013e+02,1.884273664934613919e+02,1.883092944345797832e+02,1.881984997537641675e+02,1.880975164467389504e+02,1.880087173285887445e+02,1.879354485342751673e+02,1.878813710817857725e+02,1.878535483520104208e+02,1.878603859634780520e+02,1.879072628218835632e+02,1.879974504640985344e+02,1.881301068919767090e+02,1.882999134873404046e+02,1.884960911367683991e+02,1.887053040808025060e+02,1.889149268657615721e+02,1.891136332559119637e+02,1.892929910139073968e+02,1.894469725009599301e+02,1.895737735474643273e+02,1.896742290095962460e+02,1.897516961672981495e+02,1.898108696368890946e+02,1.898565816448599151e+02,1.898949457567124455e+02,1.899293896489786846e+02,1.899608814686949927e+02,1.899882175708075920e+02,1.900089887095128915e+02,1.900203207427815641e+02,1.900184570747706800e+02,1.900022512749844452e+02,1.899725331186332369e+02,1.899314454333203912e+02,1.898822779524227826e+02,1.898292625290531532e+02,1.897788064244800808e+02,1.897427255253167857e+02,1.897261578672703024e+02,1.897300647939965756e+02,1.897469225431431141e+02,1.897740990039870894e+02,1.898080038180491442e+02,1.898326508112714919e+02,1.898439024703517362e+02,1.898431057768644621e+02,1.898450629900197271e+02,1.898530550716753851e+02,1.898669540279316266e+02,1.898916833595886260e+02,1.899254473635156728e+02,1.899637928022231677e+02,1.899968684673999064e+02,1.900212066188697406e+02,1.900364936888860257e+02,1.900439729446251818e+02,1.900460333334841607e+02,1.900464035910253244e+02,1.900483548311763400e+02,1.900546942512574731e+02,1.900677140421508966e+02,1.900886622462975595e+02,1.901189017031543642e+02,1.901590301616989791e+02,1.902096266873242314e+02,1.902707249817370894e+02,1.903416086994408261e+02,1.904217318496887970e+02,1.905102145585834990e+02
1.896661881142071309e+02,1.897521993861791714e+02,1.898502459882366793e+02,1.899529830723367922e+02,1.900539059521987610e+02,1.901491813777259381e+02,1.902353114518471671e+02,1.903120425357808472e+02,1.903825531065227779e+02,1.904537924641896325e+02,1.905326364610108101e+02,1.906259872080582909e+02,1.907382197840335323e+02,1.908663373743903549e+02,1.910027419415092425e+02,1.911351984294769579e+02,1.912525071166546127e+02,1.913413086544560144e+02,1.913911554219369009e+02,1.913982139701519998e+02,1.913661164729244888e+02,1.913047365055550983e+02,1.912262908759433913e+02,1.911449909171142849e+02,1.910727083117891993e+02,1.910174736360679333e+02,1.909810687248603926e+02,1.909605788074392763e+02,1.909495778593251032e+02,1.909407332484246638e+02,1.909278886431114870e+02,1.909062890266636998e+02,1.908729945590893919e+02,1.908261234401222453e+02,1.907645534437943695e+02,1.906869707771566596e+02,1.905920758903943977e+02,1.904794419192236887e+02,1.903500323072791787e+02,1.902057920360979608e+02,1.900490523866202750e+02,1.898833389057873546e+02,1.897123282099004200e+02,1.895399056758574545e+02,1.893688249520598390e+02,1.892016074819768505e+02,1.890404345889602382e+02,1.888862478272994849e+02,1.887406430536068171e+02,1.886050099099753936e+02,1.884819823574426891e+02,1.883725011827425249e+02,1.882766521720957371e+02,1.881950706494437782e+02,1.881266942145773271e+02,1.880702947467727881e+02,1.880248436880771408e+02,1.879936510490065871e+02,1.879832497623730205e+02,1.880001141541192169e+02,1.880506719232207047e+02,1.881387909540449641e+02,1.882641099626963808e+02,1.884201771055772667e+02,1.885966539582165353e+02,1.887819574432481886e+02,1.889648228883820593e+02,1.891359328711259593e+02,1.892878718028745197e+02,1.894172992786137684e+02,1.895236610789723954e+02,1.896091902433459779e+02,1.896774130270535181e+02,1.897324001943329961e+02,1.897798889956626169e+02,1.898231594634700627e+02,1.898630281980847485e+02,1.898980986153988226e+02,1.899258362300911642e+02,1.899429750057335013e+02,1.899454992949418397e+02,1.899322423557268849e+02,1.899043464401208325e+02,1.898645052420528998e+02,1.898163947409301784e+02,1.897646898934023909e+02,1.897157065116942647e+02,1.896816575633929176e+02,1.896674930273904067e+02,1.896740699544006645e+02,1.896934103635978204e+02,1.897228612410521009e+02,1.897594102161643548e+02,1.897860502359905865e+02,1.897983703373270430e+02,1.897969219792497881e+02,1.897970211172518020e+02,1.898017086353054310e+02,1.898106573558844730e+02,1.898296417962329201e+02,1.898574370091094750e+02,1.898905115017456353e+02,1.899190967852426866e+02,1.899401544054428257e+02,1.899534591712211409e+02,1.899600984075328540e+02,1.899622741790833800e+02,1.899635957566164279e+02,1.899674640644796568e+02,1.899768783620061470e+02,1.899943768045185379e+02,1.900214808849415249e+02,1.900596485263171473e+02,1.901092032461634176e+02,1.901700232912323543e+02,1.902413371027718085e+02,1.903214938564151169e+02,1.904090670863919854e+02,1.905024453759478149e+02
1.897065477065771688e+02,1.897741324630410134e+02,1.898526902932186431e+02,1.899353845582900533e+02,1.900158054374590790e+02,1.900903757998876245e+02,1.901556177265312044e+02,1.902113962119963162e+02,1.902620668330935416e+02,1.903161246406478995e+02,1.903823146329222595e+02,1.904685216400263243e+02,1.905795358411969573e+02,1.907121015410196208e+02,1.908571903239447067e+02,1.910011381795733314e+02,1.911313573374336272e+02,1.912340376184891682e+02,1.912984441383857757e+02,1.913206782290621675e+02,1.913048515424857214e+02,1.912614169406368205e+02,1.912032953384281484e+02,1.911447787225630748e+02,1.910975171991625530e+02,1.910688019416518841e+02,1.910588773580731754e+02,1.910627195625016554e+02,1.910714809836418056e+02,1.910763204508544959e+02,1.910706025157159047e+02,1.910502978650249304e+02,1.910142374371424978e+02,1.909627730813847393e+02,1.908970686868428004e+02,1.908170379805621906e+02,1.907217909978359955e+02,1.906104236127631566e+02,1.904829478768151603e+02,1.903401738324341466e+02,1.901834141142654744e+02,1.900157156393553066e+02,1.898405946853804949e+02,1.896620186820285880e+02,1.894831957968373501e+02,1.893072466328705161e+02,1.891372423455729574e+02,1.889750561717632422e+02,1.888234259691020327e+02,1.886851468901624287e+02,1.885640088276481094e+02,1.884618337918109603e+02,1.883787072595521863e+02,1.883140037369568063e+02,1.882640172391750184e+02,1.882235742193613248e+02,1.881871613585004468e+02,1.881540112326253507e+02,1.881279039294585687e+02,1.881152520151367753e+02,1.881245247421805971e+02,1.881636306043212699e+02,1.882372042470350664e+02,1.883437199899490508e+02,1.884768512694637081e+02,1.886271729834150221e+02,1.887844294712237172e+02,1.889390549483258610e+02,1.890827161000808871e+02,1.892107333590004146e+02,1.893211607782055808e+02,1.894147989141899586e+02,1.894936807971162693e+02,1.895607399491622118e+02,1.896206527410850811e+02,1.896759775819100753e+02,1.897269983296911846e+02,1.897722076154022659e+02,1.898091571887767373e+02,1.898345298632289939e+02,1.898444877684670189e+02,1.898381175031480268e+02,1.898169000119762870e+02,1.897838093249333724e+02,1.897424815916725720e+02,1.896975137621132603e+02,1.896547091108782581e+02,1.896263609147353577e+02,1.896171780723514644e+02,1.896279790733736945e+02,1.896505911887918217e+02,1.896826324919412627e+02,1.897218250891070284e+02,1.897503186321229407e+02,1.897634209459325803e+02,1.897610088602244218e+02,1.897589484230655614e+02,1.897601321769003562e+02,1.897642360143867677e+02,1.897780641689965933e+02,1.898011702184753347e+02,1.898309375175902005e+02,1.898575517098729506e+02,1.898781827984881829e+02,1.898923797890471974e+02,1.899007173608783319e+02,1.899049495868219992e+02,1.899083647366791467e+02,1.899145303589763216e+02,1.899267477411852099e+02,1.899480356460747714e+02,1.899804499164051492e+02,1.900256501443430182e+02,1.900838065988842231e+02,1.901540578586957224e+02,1.902347693933129165e+02,1.903232620741934227e+02,1.904172062924507145e+02,1.905143851387006748e+02
1.897634503103963652e+02,1.898148111289244184e+02,1.898758544437843057e+02,1.899402404734984202e+02,1.900017313555470082e+02,1.900570190794377083e+02,1.901028178781902511e+02,1.901392665934149022e+02,1.901718075914808992e+02,1.902099623946530187e+02,1.902636892441838086e+02,1.903412036773969191e+02,1.904471411079362326e+02,1.905778858323254781e+02,1.907234121902055222e+02,1.908696830857997213e+02,1.910038090521094603e+02,1.911125012689664402e+02,1.911854444682295480e+02,1.912188437674114425e+02,1.912169840869064501e+02,1.911901538058548340e+02,1.911512621920856247e+02,1.911141051795025589e+02,1.910898130497365059e+02,1.910850059130596321e+02,1.910986893152156654e+02,1.911241487920786994e+02,1.911504697550892331e+02,1.911676289496488437e+02,1.911687252454574946e+02,1.911505237482089115e+02,1.911135628690079216e+02,1.910602704766494924e+02,1.909939344391420377e+02,1.909154434662470123e+02,1.908240841473864293e+02,1.907182012606103285e+02,1.905966895239390340e+02,1.904591668577030532e+02,1.903059997573103317e+02,1.901399293507389814e+02,1.899644446303965708e+02,1.897837222299673670e+02,1.896013853565717397e+02,1.894210426265435672e+02,1.892464153230642125e+02,1.890800124411966010e+02,1.889253092597673174e+02,1.887860977390672019e+02,1.886670885863464378e+02,1.885710050377125242e+02,1.884982722799506689e+02,1.884476341345340416e+02,1.884136886098078492e+02,1.883882735930535262e+02,1.883619466290943478e+02,1.883298304912322862e+02,1.882922896489758386e+02,1.882545224084169320e+02,1.882256937843202138e+02,1.882166089205528579e+02,1.882363931350066650e+02,1.882885698831000525e+02,1.883714737109787905e+02,1.884788419730414262e+02,1.886024121591426308e+02,1.887331849909756158e+02,1.888625551764824309e+02,1.889848586602254841e+02,1.890968982069955757e+02,1.891977996463135980e+02,1.892878163330785810e+02,1.893683528044673494e+02,1.894423765823340204e+02,1.895111999581836244e+02,1.895742045834911096e+02,1.896299007602717666e+02,1.896761960689762532e+02,1.897101779089866511e+02,1.897287143213034710e+02,1.897314557709311487e+02,1.897202984143424374e+02,1.896981914264679574e+02,1.896683020638040773e+02,1.896345728089203533e+02,1.896018821968628458e+02,1.895822290050893741e+02,1.895799450335861707e+02,1.895958228514602695e+02,1.896217155675144852e+02,1.896558549830813263e+02,1.896967801230235864e+02,1.897261108789853097e+02,1.897390186705059705e+02,1.897349682626319805e+02,1.897304123606876942e+02,1.897280595464760324e+02,1.897277205608479562e+02,1.897372226879295454e+02,1.897569740153615214e+02,1.897851783268778831e+02,1.898118684148712418e+02,1.898342939954924873e+02,1.898515625384969780e+02,1.898634876748405702e+02,1.898711396354125327e+02,1.898772985219264910e+02,1.898856730241440403e+02,1.898998961015201417e+02,1.899236070578674003e+02,1.899596074555198584e+02,1.900098995165588747e+02,1.900746584158062262e+02,1.901523490049547149e+02,1.902405505462585324e+02,1.903356366890248239e+02,1.904344321733934464e+02,1.905342360202542693e+02
1.898349565832473900e+02,1.898720857204241383e+02,1.899178071253223834e+02,1.899662389200629207e+02,1.900114497113710570e+02,1.900504072014597625e+02,1.900802430541769468e+02,1.901015020541906608e+02,1.901203005706139493e+02,1.901463396438889220e+02,1.901897256809347425e+02,1.902582289571845422e+02,1.903557188891734313e+02,1.904782518775503775e+02,1.906156461073074126e+02,1.907548101837149659e+02,1.908838550886882217e+02,1.909909036733410801e+02,1.910666903130637593e+02,1.911076032895152537e+02,1.911176159673271684e+02,1.911060598496745797e+02,1.910850574898112200e+02,1.910674056683681385e+02,1.910634641120124400e+02,1.910792807864192184e+02,1.911130038244467642e+02,1.911567247102699412e+02,1.911979321471241917e+02,1.912257570489479122e+02,1.912331957002296008e+02,1.912177739749060663e+02,1.911815337065634992e+02,1.911286702449898200e+02,1.910642834028021468e+02,1.909899826704754560e+02,1.909050287817368599e+02,1.908068539762045077e+02,1.906931782510014841e+02,1.905625014519984006e+02,1.904144657670260585e+02,1.902517235661238999e+02,1.900779200867810630e+02,1.898976011437542866e+02,1.897148056115416637e+02,1.895335584393578756e+02,1.893579258196227499e+02,1.891907543342783811e+02,1.890358590253879072e+02,1.888975696594546605e+02,1.887812051384946699e+02,1.886902751131393643e+02,1.886258507850484136e+02,1.885866169531009007e+02,1.885663926205966163e+02,1.885551024815359256e+02,1.885402028487607708e+02,1.885130302359299321e+02,1.884701816516853796e+02,1.884146453451879779e+02,1.883549695051114270e+02,1.883034873094450461e+02,1.882728832184098167e+02,1.882713201858108505e+02,1.883019689486019104e+02,1.883624673374140457e+02,1.884473885795978561e+02,1.885491502546156823e+02,1.886595863103683541e+02,1.887725699516843463e+02,1.888839115557352955e+02,1.889909420675024307e+02,1.890919204760293439e+02,1.891863810926560063e+02,1.892750644720960906e+02,1.893575861447347961e+02,1.894321157756363903e+02,1.894972619733491399e+02,1.895515380681455326e+02,1.895928874740379797e+02,1.896194024768377631e+02,1.896315806718213537e+02,1.896318484569158613e+02,1.896229023405392411e+02,1.896071152412887670e+02,1.895872544854813668e+02,1.895668895556957239e+02,1.895573877557369542e+02,1.895625263768858986e+02,1.895830378533088378e+02,1.896109972904492338e+02,1.896455874187813606e+02,1.896862691573660413e+02,1.897145034162015236e+02,1.897255783286765052e+02,1.897189003954958082e+02,1.897114471934460482e+02,1.897056174451007564e+02,1.897013249903299368e+02,1.897072687753821754e+02,1.897246491872291188e+02,1.897523228138990419e+02,1.897801609881070988e+02,1.898054772584093257e+02,1.898268917010719861e+02,1.898433593326165294e+02,1.898551029532402765e+02,1.898642036910406716e+02,1.898743955866234785e+02,1.898895528145948504e+02,1.899139713581335513e+02,1.899512880971649338e+02,1.900039925923401540e+02,1.900724792081751104e+02,1.901547468302590573e+02,1.902477917027084118e+02,1.903472160117120211e+02,1.904491293088032933e+02,1.905504443875512095e+02
1.899186991883832434e+02,1.899434372666639490e+02,1.899764226899793584e+02,1.900121789659300191e+02,1.900450921719562700e+02,1.900723564249531137e+02,1.900915788592573392e+02,1.901036196651280648e+02,1.901145600029380489e+02,1.901332800851924958e+02,1.901688924223145989e+02,1.902280523862891357e+02,1.903135729289458311e+02,1.904214378845312297e+02,1.905424110444309633e+02,1.906656625732871930e+02,1.907815634141500425e+02,1.908802776143346591e+02,1.909539012986197406e+02,1.909989832211734893e+02,1.910186947684649965e+02,1.910207724105563614e+02,1.910159013719529639e+02,1.910155537910934811e+02,1.910291996787848348e+02,1.910623850083212574e+02,1.911127120584423267e+02,1.911715025284339902e+02,1.912251696670961394e+02,1.912623173101690384e+02,1.912759293298269938e+02,1.912641673472604396e+02,1.912302634352903397e+02,1.911798066568423167e+02,1.911192182411018905e+02,1.910505188305013462e+02,1.909727642632576305e+02,1.908824671237307768e+02,1.907762431776121730e+02,1.906516456577899703e+02,1.905079251627423673e+02,1.903479629797923565e+02,1.901758279261392204e+02,1.899965943400440267e+02,1.898147810656081447e+02,1.896347818336267608e+02,1.894607721074341384e+02,1.892956259592034201e+02,1.891430868139537438e+02,1.890075829595317032e+02,1.888946707206181941e+02,1.888084629606480291e+02,1.887507974257142678e+02,1.887207377770779431e+02,1.887121303354138320e+02,1.887140156741573662e+02,1.887117113555225103e+02,1.886933559743969511e+02,1.886518378129809150e+02,1.885872751809652641e+02,1.885064905138118831e+02,1.884219827195160804e+02,1.883488294685694200e+02,1.882990321860909830e+02,1.882802720339253426e+02,1.882943899614246277e+02,1.883393932459780160e+02,1.884098882966295321e+02,1.884988494788702269e+02,1.886002620520446555e+02,1.887093242304788419e+02,1.888216325837130682e+02,1.889333419154870057e+02,1.890418522252250000e+02,1.891453163587361246e+02,1.892412812416054635e+02,1.893264347733756665e+02,1.893995139509376031e+02,1.894598119530535030e+02,1.895064478599041422e+02,1.895391218700900140e+02,1.895594716915611002e+02,1.895706272659593310e+02,1.895748495398008799e+02,1.895735080633778580e+02,1.895678694144568794e+02,1.895598937849908623e+02,1.895600090471602641e+02,1.895712310155587090e+02,1.895943125870806796e+02,1.896217225961007955e+02,1.896538468392384971e+02,1.896912361951703474e+02,1.897156049327942355e+02,1.897227029995157750e+02,1.897120780267023292e+02,1.897011228260836333e+02,1.896917950644441078e+02,1.896839643243151556e+02,1.896869250587872386e+02,1.897024451267379561e+02,1.897298878410102816e+02,1.897590230387153269e+02,1.897872491384764260e+02,1.898128011357024718e+02,1.898338170335453015e+02,1.898496206308821002e+02,1.898614421433097732e+02,1.898728366946042740e+02,1.898877633623225449e+02,1.899110285679465449e+02,1.899470578797674136e+02,1.899989279986597808e+02,1.900675084926558611e+02,1.901506638650155026e+02,1.902451422883117687e+02,1.903460792835756479e+02,1.904490997069747209e+02,1.905508305005479031e+02
1.900126597885277704e+02,1.900267856482436741e+02,1.900499582492547859e+02,1.900770143502977021e+02,1.901025414816098191e+02,1.901237303651738841e+02,1.901384417135869853e+02,1.901474800158663072e+02,1.901560610286532267e+02,1.901713947106657656e+02,1.902007987224117187e+02,1.902495809950514172e+02,1.903196312678816469e+02,1.904073265705985420e+02,1.905054498476227138e+02,1.906063626456362954e+02,1.907034607593626276e+02,1.907891022627858604e+02,1.908567892739933427e+02,1.909032253824892678e+02,1.909304692468481903e+02,1.909443670308879177e+02,1.909537945941548287e+02,1.909687697958462991e+02,1.909977363336836902e+02,1.910456323179356559e+02,1.911096336426098787e+02,1.911806218340540227e+02,1.912445385263162052e+02,1.912898624539567436e+02,1.913097188881471311e+02,1.913027777941821341e+02,1.912731039979738057e+02,1.912271577593151619e+02,1.911719650844375167e+02,1.911095092252413963e+02,1.910384352942019746e+02,1.909544483087279332e+02,1.908532525489566751e+02,1.907317870818585561e+02,1.905893515497536157e+02,1.904294677860049205e+02,1.902569437176816507e+02,1.900775660077739531e+02,1.898964451069816448e+02,1.897183364397523349e+02,1.895473603545904382e+02,1.893861027814365627e+02,1.892378657906917567e+02,1.891067514432547227e+02,1.889981555107927136e+02,1.889165099677261423e+02,1.888643685574340054e+02,1.888415078377994973e+02,1.888424517118976951e+02,1.888562628139593755e+02,1.888671258356572480e+02,1.888607652077355681e+02,1.888268058070769371e+02,1.887621502644304883e+02,1.886710747148737539e+02,1.885650429547448539e+02,1.884602836144234743e+02,1.883715912961138201e+02,1.883103924860449467e+02,1.882826466442215008e+02,1.882900750291233010e+02,1.883300674713690626e+02,1.883973307325992437e+02,1.884864937561946476e+02,1.885926026059189837e+02,1.887097186665918116e+02,1.888319448777830303e+02,1.889543722312287457e+02,1.890723767946481075e+02,1.891812330218337195e+02,1.892759537162654340e+02,1.893553919909582817e+02,1.894196431583376636e+02,1.894691987349822000e+02,1.895056109893124017e+02,1.895318905605232942e+02,1.895520464695430292e+02,1.895677944065575105e+02,1.895794470293764959e+02,1.895866697508062941e+02,1.895895659980209587e+02,1.895973500043847935e+02,1.896120540858121046e+02,1.896345528440257056e+02,1.896578126239122639e+02,1.896834951650602079e+02,1.897135480690075440e+02,1.897303692268779969e+02,1.897305676708698741e+02,1.897139458448220637e+02,1.896982220602758673e+02,1.896848596361539308e+02,1.896734264978055080e+02,1.896734533346037779e+02,1.896869685164278678e+02,1.897136959082409930e+02,1.897433926554348318e+02,1.897735954481009628e+02,1.898023052125246863e+02,1.898270344754116650e+02,1.898462548947399569e+02,1.898602832838994061e+02,1.898722420054722022e+02,1.898859420570924499e+02,1.899064728669697217e+02,1.899388476592521044e+02,1.899867579319508195e+02,1.900517783256565281e+02,1.901320382908137674e+02,1.902244369965239343e+02,1.903239842633821866e+02,1.904261004869912881e+02,1.905272226365914889e+02
1.901174477553563236e+02,1.901229424393040972e+02,1.901391796788976478e+02,1.901612174903976040e+02,1.901837054466415395e+02,1.902035372052439186e+02,1.902184422354725655e+02,1.902287681525253333e+02,1.902382061136514153e+02,1.902519146171098328e+02,1.902751334266447429e+02,1.903120441847324003e+02,1.903640174089401000e+02,1.904282542709146071e+02,1.905002313935811173e+02,1.905757080936213015e+02,1.906512634159006438e+02,1.907212374714215741e+02,1.907804922188774697e+02,1.908259841504327312e+02,1.908586368098635262e+02,1.908824687134123792e+02,1.909044047599289229e+02,1.909329554180986293e+02,1.909753356521133583e+02,1.910356569877053516e+02,1.911106737411318477e+02,1.911911602938466217e+02,1.912632767372157332e+02,1.913158458053139270e+02,1.913423112141403521e+02,1.913416685561517454e+02,1.913183505996732663e+02,1.912790292494041182e+02,1.912305191573663876e+02,1.911742981908483330e+02,1.911084578073821945e+02,1.910281536453444176e+02,1.909285783618698531e+02,1.908065046483544620e+02,1.906617050867854744e+02,1.904986686243268821e+02,1.903231893253819180e+02,1.901418870328193975e+02,1.899604837484701534e+02,1.897840699029593452e+02,1.896166097316202865e+02,1.894601995200825115e+02,1.893173976101087419e+02,1.891915990431942589e+02,1.890876932152093275e+02,1.890101184869001258e+02,1.889620208734929463e+02,1.889440385648749441e+02,1.889518736276546065e+02,1.889754040703376177e+02,1.889986809507105363e+02,1.890059581523119618e+02,1.889842618205273368e+02,1.889273096447029161e+02,1.888362975277310625e+02,1.887206704720229595e+02,1.885965584023959991e+02,1.884803267378073031e+02,1.883861208142455439e+02,1.883235635957392731e+02,1.882980755032259026e+02,1.883102066634876053e+02,1.883568482350724480e+02,1.884337649565949562e+02,1.885363534680617477e+02,1.886575328568924874e+02,1.887896139670372975e+02,1.889253705918806929e+02,1.890574733539525596e+02,1.891788719615410344e+02,1.892828204354973991e+02,1.893681371853523956e+02,1.894355608201155121e+02,1.894869213260748495e+02,1.895255902859868229e+02,1.895560653753996405e+02,1.895833088267658582e+02,1.896084720071224297e+02,1.896308740051170787e+02,1.896487112266437407e+02,1.896601515210164735e+02,1.896729902892599284e+02,1.896880899147768957e+02,1.897065495217549937e+02,1.897218787541758616e+02,1.897369540773956658e+02,1.897553653202562032e+02,1.897605888524873308e+02,1.897504987921410873e+02,1.897252381585212504e+02,1.897028169422233077e+02,1.896842160263383050e+02,1.896685033617364979e+02,1.896651182377868849e+02,1.896759911376650507e+02,1.897010241191399302e+02,1.897300215829652643e+02,1.897607181600852471e+02,1.897910406455682732e+02,1.898180910878204486e+02,1.898396704990969681e+02,1.898552363702609398e+02,1.898672281177721288e+02,1.898790395757184513e+02,1.898957371813201860e+02,1.899226602224120199e+02,1.899640395903202261e+02,1.900222935954837169e+02,1.900962123744388066e+02,1.901832388925824375e+02,1.902786389642535596e+02,1.903779251618377657e+02,1.904774297451439509e+02
1.902356659470099203e+02,1.902339715668711051e+02,1.902452764367963596e+02,1.902647923164450674e+02,1.902871412292703326e+02,1.903086060484947382e+02,1.903263286937619512e+02,1.903398011265356899e+02,1.903508755690668863e+02,1.903627182786162848e+02,1.903786500153706243e+02,1.904022144131174628e+02,1.904348467999015782e+02,1.904749101350726335e+02,1.905207128902235638e+02,1.905709897842374119e+02,1.906251052332480640e+02,1.906789651388350251e+02,1.907285909531495633e+02,1.907713225637909318e+02,1.908071167256875356e+02,1.908384885177651711e+02,1.908705100800594892e+02,1.909102457320631174e+02,1.909636160002823146e+02,1.910337939773273774e+02,1.911172304267807931e+02,1.912049559128940928e+02,1.912839829991399938e+02,1.913438179435977702e+02,1.913782462934060788e+02,1.913862216188571779e+02,1.913718922203355532e+02,1.913413566289080450e+02,1.913004130439268522e+02,1.912496980641287507e+02,1.911867905408306569e+02,1.911067605264323959e+02,1.910048909213144839e+02,1.908783732732146916e+02,1.907278913315294062e+02,1.905590774439320114e+02,1.903787762358960833e+02,1.901943742447480190e+02,1.900121053620963494e+02,1.898372636324828306e+02,1.896735380467100356e+02,1.895224065694705473e+02,1.893854997678163272e+02,1.892652497502075732e+02,1.891657481299982919e+02,1.890911687162862904e+02,1.890450926772900857e+02,1.890291105330975938e+02,1.890404611726536359e+02,1.890705096737572148e+02,1.891041226538071669e+02,1.891250843468329776e+02,1.891186387950550625e+02,1.890755892392762689e+02,1.889937925329726340e+02,1.888799209452330388e+02,1.887488242498392310e+02,1.886171458441861546e+02,1.885005660661678348e+02,1.884116083620271240e+02,1.883590750989173728e+02,1.883467488865427413e+02,1.883740079343889136e+02,1.884382061346041439e+02,1.885356295903989121e+02,1.886586806377041512e+02,1.887983805535915849e+02,1.889454919963059183e+02,1.890903081634669718e+02,1.892235954910107694e+02,1.893368747326906600e+02,1.894286497788020540e+02,1.894999749027801670e+02,1.895537056516648420e+02,1.895947476700642937e+02,1.896290060272867208e+02,1.896623374819333208e+02,1.896953861970010280e+02,1.897266183555798023e+02,1.897530764234136313e+02,1.897709813408531545e+02,1.897865611654014799e+02,1.897993485215394855e+02,1.898107398886920691e+02,1.898147794252425058e+02,1.898153774359867612e+02,1.898180514766552562e+02,1.898077065461667985e+02,1.897838784660062856e+02,1.897470607670307174e+02,1.897155971274557089e+02,1.896900712663474735e+02,1.896688648451364827e+02,1.896610560140734094e+02,1.896681633126831628e+02,1.896901496737278308e+02,1.897168563544692574e+02,1.897462602497681985e+02,1.897763694333492879e+02,1.898041085578323930e+02,1.898267994400538043e+02,1.898431530618341867e+02,1.898547551744730981e+02,1.898643395010072936e+02,1.898766163096758817e+02,1.898969530891029649e+02,1.899299939873828293e+02,1.899790229916526414e+02,1.900437846952794700e+02,1.901225982750003425e+02,1.902113881577072902e+02,1.903060451096056056e+02,1.904029056017894845e+02
1.903698925089755676e+02,1.903617180312323001e+02,1.903690925771965112e+02,1.903873272344898453e+02,1.904109101622021001e+02,1.904352327087110837e+02,1.904564348348427814e+02,1.904727922780705001e+02,1.904842386404724834e+02,1.904923272645328041e+02,1.904989630242385772e+02,1.905077296520489369e+02,1.905207278933427517e+02,1.905376842601100975e+02,1.905594872469398524e+02,1.905869844291128743e+02,1.906215931052815336e+02,1.906601991864100398e+02,1.906997185389429603e+02,1.907379404121503796e+02,1.907740803351383363e+02,1.908096142403611282e+02,1.908480511045576122e+02,1.908952453516390619e+02,1.909559690148670086e+02,1.910326123579397688e+02,1.911216529420655093e+02,1.912148097273038729e+02,1.913004327009133760e+02,1.913688314165906945e+02,1.914138868525168391e+02,1.914339198752626885e+02,1.914319315629127800e+02,1.914125679060149423e+02,1.913798580546836092e+02,1.913334421289877696e+02,1.912706259124457802e+02,1.911870490398173388e+02,1.910789077276766079e+02,1.909445381195898506e+02,1.907860114526878021e+02,1.906101145383610174e+02,1.904246442621245876e+02,1.902374812698376161e+02,1.900550717339839366e+02,1.898826248710594484e+02,1.897233355957920082e+02,1.895779947127720391e+02,1.894472218783556627e+02,1.893323676099191744e+02,1.892365481969815448e+02,1.891634643812425622e+02,1.891170244411398187e+02,1.890998250839910781e+02,1.891108745422349102e+02,1.891435490282590024e+02,1.891843456630370781e+02,1.892175518173371813e+02,1.892274906042316900e+02,1.892025022945581156e+02,1.891371048440368554e+02,1.890346731973992007e+02,1.889077863340654346e+02,1.887721479737842003e+02,1.886437852343266570e+02,1.885371269661510496e+02,1.884637339971852441e+02,1.884303820754295771e+02,1.884390307986675737e+02,1.884889866540700041e+02,1.885779410170474364e+02,1.886986201876173936e+02,1.888415543982411009e+02,1.889962103624949066e+02,1.891511452871180552e+02,1.892952601593341342e+02,1.894184516346628868e+02,1.895184803462256014e+02,1.895962079436946226e+02,1.896548793222088136e+02,1.897003396428991095e+02,1.897396490935669249e+02,1.897794037608288420e+02,1.898199144663342679e+02,1.898589717116127247e+02,1.898929076138325627e+02,1.899160288161779704e+02,1.899329040364792149e+02,1.899416057194670202e+02,1.899438805933563117e+02,1.899342858272920012e+02,1.899174724147969471e+02,1.899011930772200003e+02,1.898720199713515058e+02,1.898314745044276606e+02,1.897803014541191260e+02,1.897372551233743820e+02,1.897027502518760684e+02,1.896744073101505705e+02,1.896608300320056060e+02,1.896628878156668634e+02,1.896805358407100073e+02,1.897035977675721483e+02,1.897302494545627951e+02,1.897586498281768854e+02,1.897857051648055915e+02,1.898084532043835964e+02,1.898250029027359460e+02,1.898359887468650129e+02,1.898433135705580526e+02,1.898510424221020685e+02,1.898642756920700663e+02,1.898878767447179996e+02,1.899259349645604971e+02,1.899793465456529304e+02,1.900475572331681064e+02,1.901274752765592666e+02,1.902156730180575153e+02,1.903086724729931234e+02
1.905198370838880635e+02,1.905057060665852759e+02,1.905097896647042717e+02,1.905274477233479899e+02,1.905528805355100417e+02,1.905803090034760601e+02,1.906044531664527710e+02,1.906220960923045027e+02,1.906314105588772350e+02,1.906328679686963881e+02,1.906276742587368176e+02,1.906201595760400096e+02,1.906137097434531995e+02,1.906094584763295074e+02,1.906103532112756227e+02,1.906184182379319054e+02,1.906362854360064318e+02,1.906612137622421983e+02,1.906906227845912554e+02,1.907227559064873503e+02,1.907563097550766429e+02,1.907921319090271481e+02,1.908325032509191317e+02,1.908823860377900701e+02,1.909457276318821926e+02,1.910244975337958806e+02,1.911156844958808847e+02,1.912121728404260921e+02,1.913040140102177702e+02,1.913823170556818525e+02,1.914407009529685695e+02,1.914761890274687914e+02,1.914897414736912253e+02,1.914836815146261131e+02,1.914596551662744162e+02,1.914162264059654888e+02,1.913508168894574624e+02,1.912603569164566579e+02,1.911428497969164084e+02,1.909985520727875041e+02,1.908313453982901535e+02,1.906491492808741555e+02,1.904604231567168142e+02,1.902730926502966042e+02,1.900932829019280632e+02,1.899256336511537882e+02,1.897725732146246571e+02,1.896341151614083458e+02,1.895098613110999111e+02,1.894001090044512807e+02,1.893070140329332958e+02,1.892337936278407824e+02,1.891845995766966837e+02,1.891630625553307823e+02,1.891700859704356219e+02,1.892013789364242484e+02,1.892456802877696873e+02,1.892885530713793969e+02,1.893142334857881792e+02,1.893091837450104435e+02,1.892648265084915522e+02,1.891810237178361831e+02,1.890673304086833184e+02,1.889375152617525941e+02,1.888068652501759175e+02,1.886906189597426078e+02,1.886022676323054554e+02,1.885510546538249343e+02,1.885414409185422073e+02,1.885748409751387271e+02,1.886507622724901125e+02,1.887630900446803253e+02,1.889028015306910788e+02,1.890590329194160404e+02,1.892194661824214563e+02,1.893717424715184450e+02,1.895044493867669360e+02,1.896143596035426242e+02,1.897016043923113386e+02,1.897690710078601342e+02,1.898227504715002567e+02,1.898703862529337130e+02,1.899189473869195126e+02,1.899683741543022961e+02,1.900158921230158455e+02,1.900575127363475474e+02,1.900857209589547097e+02,1.901034248830811748e+02,1.901072248821318738e+02,1.900993799954595147e+02,1.900749271501826172e+02,1.900390027376325861e+02,1.900018565344859951e+02,1.899518249164560473e+02,1.898925776408745207e+02,1.898248687653016304e+02,1.897680374860559880e+02,1.897225993626569505e+02,1.896854518588873475e+02,1.896647331345695875e+02,1.896605591321983866e+02,1.896729269840651853e+02,1.896915008112710552e+02,1.897145316827329964e+02,1.897402850969429267e+02,1.897657646669769065e+02,1.897878948433242670e+02,1.898043324985809477e+02,1.898147662208523343e+02,1.898202046234156910e+02,1.898238379720554860e+02,1.898302076606026390e+02,1.898441279476244290e+02,1.898703311184956419e+02,1.899108941018932057e+02,1.899665159641528760e+02,1.900353555680438546e+02,1.901149660644672963e+02,1.902023323485328206e+02
1.906843160972426290e+02,1.906646696919876831e+02,1.906656661685157133e+02,1.906826599092740366e+02,1.907094722258627257e+02,1.907389815565512095e+02,1.907642764288157764e+02,1.907806386179325955e+02,1.907848302178909705e+02,1.907768251303631928e+02,1.907578306417119052e+02,1.907334876094553238e+02,1.907087874318964964e+02,1.906860936740117438e+02,1.906697163047778361e+02,1.906619791523100957e+02,1.906659781573544592e+02,1.906788703767758477e+02,1.906983529456301483e+02,1.907231065389427442e+02,1.907515171130669387e+02,1.907840655868786541e+02,1.908220564131657682e+02,1.908698056597516768e+02,1.909307241886893962e+02,1.910068140912069907e+02,1.910961093128819357e+02,1.911932012564108447e+02,1.912901340312247100e+02,1.913787773785410025e+02,1.914521495346149891e+02,1.915053802104218903e+02,1.915366105885921115e+02,1.915450766948310957e+02,1.915296293162036818e+02,1.914878399715038881e+02,1.914176989932758204e+02,1.913181038617117622e+02,1.911896821966552409e+02,1.910353047638341764e+02,1.908609713040156635e+02,1.906755661186244879e+02,1.904877667690783767e+02,1.903049703537031689e+02,1.901322849840456684e+02,1.899732065481514383e+02,1.898290451089235376e+02,1.896989464548720434e+02,1.895815893826791694e+02,1.894763735897949744e+02,1.893847413280094543e+02,1.893095576881775628e+02,1.892552537447344605e+02,1.892265174814574493e+02,1.892261577374240460e+02,1.892523456084138047e+02,1.892963863217709672e+02,1.893456540597734659e+02,1.893850108108994732e+02,1.893996944552153536e+02,1.893784933949811204e+02,1.893178277376451035e+02,1.892237789424237917e+02,1.891074523849710260e+02,1.889824784147166667e+02,1.888638584626027068e+02,1.887660367688153826e+02,1.886999880652697072e+02,1.886723754648128875e+02,1.886866975739965540e+02,1.887445046052515636e+02,1.888415461202497454e+02,1.889702319830661281e+02,1.891204663257732079e+02,1.892801013864649917e+02,1.894363275602629813e+02,1.895769399101720865e+02,1.896975832594352767e+02,1.897971512464056048e+02,1.898774794059381463e+02,1.899438547781968225e+02,1.900040672170556491e+02,1.900649310608949065e+02,1.901259457714776033e+02,1.901838394589284746e+02,1.902345184520863484e+02,1.902688056631154723e+02,1.902880617460992312e+02,1.902875312689810414e+02,1.902700679913992872e+02,1.902311430682345303e+02,1.901761863478679686e+02,1.901179626213810252e+02,1.900464925182461116e+02,1.899675859555577802e+02,1.898818581837828674e+02,1.898093998964259583e+02,1.897510916689276428e+02,1.897033321480814152e+02,1.896739789520571549e+02,1.896624322250456487e+02,1.896687844471573214e+02,1.896823938862035845e+02,1.897014649128084329e+02,1.897242205262444088e+02,1.897477698823474555e+02,1.897690534163727136e+02,1.897854250016220021e+02,1.897957221430094421e+02,1.898000536969042287e+02,1.898006319855245465e+02,1.898012069569564915e+02,1.898062291243779782e+02,1.898207790581155621e+02,1.898479808441128682e+02,1.898897537833024671e+02,1.899456460519494385e+02,1.900144098703839290e+02,1.900938149829229360e+02
1.908609034684069172e+02,1.908362246071955042e+02,1.908339455882893390e+02,1.908494110802121213e+02,1.908760998163083684e+02,1.909056341230876797e+02,1.909295747125261755e+02,1.909419816522038786e+02,1.909386555754446135e+02,1.909195384980827157e+02,1.908862852997067421e+02,1.908460386971831042e+02,1.908053619654414490e+02,1.907674488404372539e+02,1.907372666172508957e+02,1.907168164188897208e+02,1.907092192806418041e+02,1.907113238043419869e+02,1.907209982604396714e+02,1.907373210019039504e+02,1.907584728160742316e+02,1.907846343889635534e+02,1.908162549704813387e+02,1.908571856207261987e+02,1.909105935510371808e+02,1.909790129483198200e+02,1.910620885882951825e+02,1.911566103477770753e+02,1.912567320481398951e+02,1.913549225068309454e+02,1.914432956070000102e+02,1.915146473779898884e+02,1.915637577119742900e+02,1.915863197619518701e+02,1.915783575199300515e+02,1.915367534170067643e+02,1.914605748217973655e+02,1.913512151023143417e+02,1.912125043170473191e+02,1.910503541785532207e+02,1.908729319662000989e+02,1.906897663688948228e+02,1.905091550150692115e+02,1.903373107139358922e+02,1.901775838710747735e+02,1.900317326774801359e+02,1.898996041067772467e+02,1.897794478577158088e+02,1.896692226416608946e+02,1.895677593040400382e+02,1.894762221871129952e+02,1.893974163060831586e+02,1.893361824926512611e+02,1.892981796752643220e+02,1.892879678031476374e+02,1.893060460329876662e+02,1.893463100958524592e+02,1.893982369076637156e+02,1.894478426617761784e+02,1.894798934869808420e+02,1.894812362157225607e+02,1.894452533729711661e+02,1.893744446996186923e+02,1.892768138118179593e+02,1.891636748452417578e+02,1.890488329259868010e+02,1.889466406835514078e+02,1.888689069394482658e+02,1.888239951377095736e+02,1.888172832271011146e+02,1.888523662396838176e+02,1.889273948799372533e+02,1.890370786938815684e+02,1.891732220790905217e+02,1.893249725169861506e+02,1.894799987550064770e+02,1.896259590650579128e+02,1.897573165026698518e+02,1.898713681935590500e+02,1.899682254701461375e+02,1.900516289654860884e+02,1.901286277004450653e+02,1.902053134362205640e+02,1.902806989667128619e+02,1.903510794784680797e+02,1.904123921967672572e+02,1.904541798227220113e+02,1.904765686888193841e+02,1.904735945469913645e+02,1.904485983776659168e+02,1.903973538867336401e+02,1.903254968194698620e+02,1.902478477253367544e+02,1.901558494672702579e+02,1.900573954857083834e+02,1.899530677637506813e+02,1.898638782847716016e+02,1.897911891869059673e+02,1.897313304794562328e+02,1.896921236873545240e+02,1.896723172878108130e+02,1.896720870481494501e+02,1.896803689932199006e+02,1.896952839022382307e+02,1.897148678174782219e+02,1.897363102739287797e+02,1.897566798613609365e+02,1.897731612378719319e+02,1.897838961985282253e+02,1.897881298904777623e+02,1.897870531348833936e+02,1.897834642004748957e+02,1.897811341557070364e+02,1.897851193515666921e+02,1.897993055071720505e+02,1.898266688456674842e+02,1.898681744170931438e+02,1.899238970025265871e+02,1.899926935406144537e+02
1.910466666605566388e+02,1.910172911402297302e+02,1.910112484659562710e+02,1.910238960483984840e+02,1.910484692348039744e+02,1.910756104138073965e+02,1.910957376752405423e+02,1.911020853189025956e+02,1.910899201722741623e+02,1.910593580283771189e+02,1.910126623774165182e+02,1.909583389468623409e+02,1.909042614451642521e+02,1.908540854306056644e+02,1.908129276667089300e+02,1.907822438703118451e+02,1.907649874204190610e+02,1.907576262200741439e+02,1.907580112817164775e+02,1.907654139587727116e+02,1.907777601117631718e+02,1.907948766728989369e+02,1.908164886549436687e+02,1.908462171409591690e+02,1.908873918649595680e+02,1.909435726043574277e+02,1.910164630865803304e+02,1.911052771530395944e+02,1.912061557134875329e+02,1.913119174087800616e+02,1.914135509556266186e+02,1.915013674564721384e+02,1.915666290051573810e+02,1.916015157463607181e+02,1.915995190714776584e+02,1.915572584999484889e+02,1.914752414696936000e+02,1.913575731084471272e+02,1.912114558115812031e+02,1.910458541701324577e+02,1.908709359125134313e+02,1.906964511103680024e+02,1.905297684309730357e+02,1.903753347151216815e+02,1.902341862614006232e+02,1.901059163511245913e+02,1.899886544765095948e+02,1.898797721874396132e+02,1.897767654732331550e+02,1.896783335931769443e+02,1.895858428190442453e+02,1.895023714927152696e+02,1.894332885032350191e+02,1.893850891057367676e+02,1.893637689468592953e+02,1.893717728046513002e+02,1.894053208427278605e+02,1.894560336542027414e+02,1.895114777664044539e+02,1.895567051678920905e+02,1.895774895520550558e+02,1.895648613462906269e+02,1.895180089491840363e+02,1.894417189916827056e+02,1.893445560261237119e+02,1.892383367054950440e+02,1.891363368789916137e+02,1.890502981859546594e+02,1.889896646542160568e+02,1.889613846943916542e+02,1.889709456024205565e+02,1.890192130822394176e+02,1.891038069870804463e+02,1.892193587999353781e+02,1.893572477209343390e+02,1.895064259972840262e+02,1.896550269439670728e+02,1.897963157240199905e+02,1.899257939316788963e+02,1.900413332840458907e+02,1.901445183158337784e+02,1.902409617831837352e+02,1.903356059944204048e+02,1.904270714595587322e+02,1.905113168439119704e+02,1.905843753380766827e+02,1.906349301563188874e+02,1.906622599228194872e+02,1.906593186811490455e+02,1.906296249272529053e+02,1.905690986229523389e+02,1.904835711152691999e+02,1.903892988951062080e+02,1.902787949700018260e+02,1.901619378154161950e+02,1.900395362977390619e+02,1.899335730891184255e+02,1.898458193481422995e+02,1.897729098862586170e+02,1.897228699217561143e+02,1.896939264922318387e+02,1.896863204352856656e+02,1.896885728593708222e+02,1.896988512131095206e+02,1.897149759156294522e+02,1.897342134676067360e+02,1.897537472022540044e+02,1.897706577504815186e+02,1.897825421073558800e+02,1.897878042702470509e+02,1.897865908313725356e+02,1.897806125891333977e+02,1.897727385499730133e+02,1.897676688992538914e+02,1.897697048092765897e+02,1.897826770789059196e+02,1.898088938674392523e+02,1.898497855472994047e+02,1.899054983473007781e+02
1.912367639924023024e+02,1.912035605120671278e+02,1.911937512033027815e+02,1.912027328298938187e+02,1.912235800115099664e+02,1.912463363464122494e+02,1.912607708302480205e+02,1.912597159220854337e+02,1.912382025085462942e+02,1.911965890854424970e+02,1.911377902618304745e+02,1.910714513430927752e+02,1.910064360080670554e+02,1.909465822809443694e+02,1.908968871618395440e+02,1.908582567750891883e+02,1.908333862752043899e+02,1.908182114053278156e+02,1.908103251743912665e+02,1.908089275274234353e+02,1.908116392159926988e+02,1.908179164107118595e+02,1.908269534175786930e+02,1.908424355215719288e+02,1.908681836633449223e+02,1.909090492721345811e+02,1.909688801139939187e+02,1.910491902638242721e+02,1.911477951772144195e+02,1.912576810185550755e+02,1.913687574927282355e+02,1.914691117723432399e+02,1.915468407346940864e+02,1.915911198039100043e+02,1.915934837426745219e+02,1.915506525550745778e+02,1.914646714293918421e+02,1.913422124251777348e+02,1.911935773920005204e+02,1.910303830333286896e+02,1.908643350786710187e+02,1.907049768283712012e+02,1.905583286987072427e+02,1.904266775966331693e+02,1.903084404564499721e+02,1.902008502823476590e+02,1.901002788646641761e+02,1.900033120105257467e+02,1.899072487871464716e+02,1.898110887672197293e+02,1.897168456768649207e+02,1.896282017086743394e+02,1.895511474683963797e+02,1.894928235716317886e+02,1.894602436380202448e+02,1.894572268200089411e+02,1.894818338808406963e+02,1.895276349644247205e+02,1.895839340422747910e+02,1.896367422988611793e+02,1.896716978859161316e+02,1.896784116038918739e+02,1.896533648858085428e+02,1.895983458632142344e+02,1.895190206073122567e+02,1.894246876297065114e+02,1.893267268791340427e+02,1.892359727575440331e+02,1.891622731419353158e+02,1.891137087129275187e+02,1.890973792838695715e+02,1.891168741144328180e+02,1.891730041635071871e+02,1.892638432053618658e+02,1.893837154492263721e+02,1.895235530828828132e+02,1.896724610401617213e+02,1.898226179815260934e+02,1.899676785512652941e+02,1.901029150464129600e+02,1.902272663334434526e+02,1.903442612141524251e+02,1.904574408429190555e+02,1.905651642044024072e+02,1.906632814127320614e+02,1.907480480655598569e+02,1.908078323705791490e+02,1.908415416787807999e+02,1.908411188533429197e+02,1.908098931596325940e+02,1.907436573868643563e+02,1.906484046545632509e+02,1.905410800758523067e+02,1.904148993463433897e+02,1.902816603813278959e+02,1.901427093322260475e+02,1.900209492539014207e+02,1.899183692558453345e+02,1.898322286759608630e+02,1.897709202705653695e+02,1.897322103815278354e+02,1.897163657778093295e+02,1.897116615118612515e+02,1.897165312048029477e+02,1.897286396075965058e+02,1.897453377026207590e+02,1.897639373674662977e+02,1.897814362388909331e+02,1.897949706837341353e+02,1.898021398231643388e+02,1.898020586317597349e+02,1.897952897313719518e+02,1.897836118433824026e+02,1.897711210364750229e+02,1.897622092822132061e+02,1.897613196338825787e+02,1.897718920581988868e+02,1.897966414731415057e+02,1.898371241219678041e+02
1.914255303407410622e+02,1.913900980326978356e+02,1.913771828819141092e+02,1.913822651832208521e+02,1.913983798250375514e+02,1.914153226383812409e+02,1.914226920133901331e+02,1.914133371902327383e+02,1.913823339547880948e+02,1.913303410222914920e+02,1.912609251312453580e+02,1.911846506679597724e+02,1.911110693749045595e+02,1.910440182952903001e+02,1.909882239106204054e+02,1.909441352278892907e+02,1.909140645315814595e+02,1.908932584099469238e+02,1.908787983154936967e+02,1.908696346909446220e+02,1.908631057391260697e+02,1.908583542489693627e+02,1.908542702356255916e+02,1.908548115574820940e+02,1.908644406599004810e+02,1.908891823696086476e+02,1.909346666513122557e+02,1.910042356902828260e+02,1.910970012543278358e+02,1.912061079808620718e+02,1.913207279824547697e+02,1.914274126946188801e+02,1.915120044261068415e+02,1.915616276375675682e+02,1.915666400743852762e+02,1.915241070794308200e+02,1.914374793783720463e+02,1.913154899289186233e+02,1.911707852150562985e+02,1.910168138806869820e+02,1.908660939286927487e+02,1.907275590681963706e+02,1.906055849314166437e+02,1.905001491684491839e+02,1.904070756664821999e+02,1.903213322887580148e+02,1.902377197518022740e+02,1.901521786992059617e+02,1.900620781691197863e+02,1.899670985155799485e+02,1.898702452226495723e+02,1.897761131254955842e+02,1.896913593744905882e+02,1.896235799670399729e+02,1.895803401266044546e+02,1.895661548438326349e+02,1.895803190000294194e+02,1.896179304812210660e+02,1.896700305839084990e+02,1.897241108198883808e+02,1.897665710394591940e+02,1.897866706523360563e+02,1.897790047480276883e+02,1.897428731747483255e+02,1.896811424407850666e+02,1.896003606170960722e+02,1.895094542451913924e+02,1.894176637520086786e+02,1.893345995231986763e+02,1.892689696945507194e+02,1.892290863326471424e+02,1.892209487282967473e+02,1.892484578177641481e+02,1.893132995253451440e+02,1.894130723933301681e+02,1.895411625545247318e+02,1.896881021441905943e+02,1.898453168511175591e+02,1.900047698814329635e+02,1.901590922364633798e+02,1.903044321001817423e+02,1.904417837486842870e+02,1.905731093070287159e+02,1.906964661892262995e+02,1.908078403316895049e+02,1.909037716821780464e+02,1.909727463978944684e+02,1.910137300782376997e+02,1.910177563044231874e+02,1.909877738805906802e+02,1.909191738798645872e+02,1.908181005480685997e+02,1.907015721564097532e+02,1.905632153135972828e+02,1.904166189737979380e+02,1.902637903742151764e+02,1.901283618321201345e+02,1.900122380798838719e+02,1.899134269928428864e+02,1.898407550461487290e+02,1.897916153807341573e+02,1.897664115503533822e+02,1.897534674344140058e+02,1.897518059231559846e+02,1.897590629536308597e+02,1.897726970067834884e+02,1.897901028102698149e+02,1.898081321886422757e+02,1.898234973679251709e+02,1.898330019560959840e+02,1.898348115811634784e+02,1.898283622750396944e+02,1.898142925670746592e+02,1.897959187479414709e+02,1.897774431086098730e+02,1.897636685466614210e+02,1.897588893853996979e+02,1.897669263389755372e+02,1.897907126171283210e+02
1.916045168392557798e+02,1.915692075389328579e+02,1.915546304377330955e+02,1.915564360403136277e+02,1.915677446354598032e+02,1.915783974072216722e+02,1.915782446665678265e+02,1.915605204933480366e+02,1.915205651343371187e+02,1.914593862445648256e+02,1.913811608096031875e+02,1.912971862399875533e+02,1.912173825882544236e+02,1.911454377266010454e+02,1.910857279281248395e+02,1.910383408782202252e+02,1.910051655676178370e+02,1.909807012309138656e+02,1.909614460041808002e+02,1.909460693570133856e+02,1.909317350418957062e+02,1.909173973421895596e+02,1.909017918748437523e+02,1.908891736971865498e+02,1.908845312504716958e+02,1.908946454430444248e+02,1.909262802235815570e+02,1.909839295488239941e+02,1.910676190896951141e+02,1.911707505001978120e+02,1.912822982278318023e+02,1.913881835503550803e+02,1.914731796141712437e+02,1.915235369966353858e+02,1.915293023941043771e+02,1.914881419937561304e+02,1.914046203853034172e+02,1.912888396877174557e+02,1.911547639007401926e+02,1.910166223384298689e+02,1.908868685288058487e+02,1.907733431288269799e+02,1.906785972529447690e+02,1.906003454631255636e+02,1.905321291020684953e+02,1.904670106126970097e+02,1.903985887903171488e+02,1.903224388171946657e+02,1.902362973290129844e+02,1.901408516762399756e+02,1.900403512673336195e+02,1.899404959404622559e+02,1.898486094110371880e+02,1.897725119998769401e+02,1.897198393529496059e+02,1.896951261321633240e+02,1.896982057693691104e+02,1.897251773840993110e+02,1.897686565137330774e+02,1.898179457276864639e+02,1.898609448453493940e+02,1.898875514907180104e+02,1.898914243857819599e+02,1.898700682013105450e+02,1.898238863640132195e+02,1.897567446437310252e+02,1.896748325394231358e+02,1.895853414701468012e+02,1.894970637566684957e+02,1.894189061005373560e+02,1.893599630378710401e+02,1.893281882636157434e+02,1.893302077151587355e+02,1.893711231154670429e+02,1.894518013733213877e+02,1.895681133113369867e+02,1.897121928765239147e+02,1.898749083149575370e+02,1.900468075559975887e+02,1.902180675279160766e+02,1.903822191271706572e+02,1.905377022582358677e+02,1.906850208012412224e+02,1.908220944165329342e+02,1.909452826291919507e+02,1.910514929557474773e+02,1.911296537703085505e+02,1.911790074147315863e+02,1.911897194298091165e+02,1.911640877150101687e+02,1.910968718482407951e+02,1.909942129613814927e+02,1.908725876418554037e+02,1.907258805849345151e+02,1.905692494232046670e+02,1.904054991179653769e+02,1.902586500829041825e+02,1.901303415901232370e+02,1.900194246773001225e+02,1.899351579246362007e+02,1.898746977815232242e+02,1.898386814545536936e+02,1.898158873374418363e+02,1.898062155167018830e+02,1.898074253680444201e+02,1.898170544616487518e+02,1.898325104174904254e+02,1.898504221202514941e+02,1.898670871717052933e+02,1.898785465979816252e+02,1.898821830245354363e+02,1.898764694229487020e+02,1.898609952701891359e+02,1.898382082384224532e+02,1.898119190526727493e+02,1.897870153648040912e+02,1.897682823791370765e+02,1.897603492265547231e+02,1.897673310294586599e+02
1.917652349058977279e+02,1.917327180228686245e+02,1.917185578162513764e+02,1.917187213973619464e+02,1.917265123646287748e+02,1.917319656611079211e+02,1.917253797601991891e+02,1.917005100761046776e+02,1.916530957525988015e+02,1.915844475242332692e+02,1.914992447593947418e+02,1.914093499810000480e+02,1.913249338768097232e+02,1.912495395185674170e+02,1.911872208989703950e+02,1.911378965561561927e+02,1.911031243231617509e+02,1.910767226737244755e+02,1.910544916587990656e+02,1.910348064998795792e+02,1.910147439568457912e+02,1.909932021617732403e+02,1.909688521187467245e+02,1.909461646435658793e+02,1.909304925837901692e+02,1.909288563668855261e+02,1.909484524552073879e+02,1.909941510472814059e+02,1.910664704750255680e+02,1.911591598595682910e+02,1.912615344847409915e+02,1.913598284369263638e+02,1.914389577065286119e+02,1.914855160893804964e+02,1.914901171790488661e+02,1.914512718904346968e+02,1.913743576806486999e+02,1.912700798284832899e+02,1.911526164639640513e+02,1.910358707149576958e+02,1.909313372279870009e+02,1.908452798493341902e+02,1.907782977823233352e+02,1.907260311847041407e+02,1.906802415826856532e+02,1.906325982987877978e+02,1.905759911257274268e+02,1.905060412368016216e+02,1.904211729168071940e+02,1.903233560410104701e+02,1.902181988211855526e+02,1.901126182646040093e+02,1.900145481824433773e+02,1.899317458533199385e+02,1.898714457428821731e+02,1.898375825923391176e+02,1.898298867234203726e+02,1.898449015832727582e+02,1.898764928518555166e+02,1.899159063963736855e+02,1.899530591415842480e+02,1.899792995924682089e+02,1.899882557732884720e+02,1.899763945365101279e+02,1.899422163070767340e+02,1.898872193031887150e+02,1.898149017067702289e+02,1.897302363470071498e+02,1.896407996941952945e+02,1.895553513064837716e+02,1.894833391713119681e+02,1.894341077270384233e+02,1.894163453803359403e+02,1.894379444195243138e+02,1.895026403892827318e+02,1.896084994623020350e+02,1.897492583370841430e+02,1.899154757916247718e+02,1.900967722170413197e+02,1.902813884583799222e+02,1.904607034028828139e+02,1.906309146130876400e+02,1.907912958879786913e+02,1.909397895721261307e+02,1.910732553223974435e+02,1.911890078317049131e+02,1.912766113428023687e+02,1.913355799118139657e+02,1.913552398941165791e+02,1.913369532711486158e+02,1.912746860109706404e+02,1.911743548533858075e+02,1.910514640824417540e+02,1.909001984870796775e+02,1.907370442488090134e+02,1.905656558163518639e+02,1.904100505417648890e+02,1.902714668346747828e+02,1.901495622714512876e+02,1.900538598769956877e+02,1.899814108208315702e+02,1.899332420278692553e+02,1.898990051578643659e+02,1.898797364688260814e+02,1.898734691812934727e+02,1.898778357808251087e+02,1.898901507097426133e+02,1.899067247976184944e+02,1.899234496508354937e+02,1.899356619527826240e+02,1.899401809667737950e+02,1.899347587850092793e+02,1.899181905639765091e+02,1.898921166259350741e+02,1.898598194508357437e+02,1.898260452025021152e+02,1.897956874954286093e+02,1.897738456696005755e+02,1.897654660588628417e+02
1.918980921518622154e+02,1.918711208505036723e+02,1.918600855910474934e+02,1.918613716761427952e+02,1.918684551969633674e+02,1.918715325419158546e+02,1.918613085759152455e+02,1.918319873866876435e+02,1.917796891313889489e+02,1.917059006920559625e+02,1.916156489979712774e+02,1.915212230418673016e+02,1.914330711830527889e+02,1.913547433401862179e+02,1.912901218461030339e+02,1.912392292658066992e+02,1.912035149662033575e+02,1.911763131515143641e+02,1.911526353567734304e+02,1.911304999262039530e+02,1.911069617104082283e+02,1.910809709439027415e+02,1.910511629206100679e+02,1.910220189204950429e+02,1.909990811155481936e+02,1.909891782511278961e+02,1.909993132703474146e+02,1.910340280034264424e+02,1.910939405326747647e+02,1.911732510739385873e+02,1.912620462999037727e+02,1.913476374459405065e+02,1.914160657114322817e+02,1.914552788869696940e+02,1.914571723364138904e+02,1.914213340810347006e+02,1.913536758186953080e+02,1.912648194285918919e+02,1.911681914647046199e+02,1.910764107021819598e+02,1.909992800395759218e+02,1.909410243800605542e+02,1.909002429743881919e+02,1.908707958759104315e+02,1.908432614042388593e+02,1.908085245238154073e+02,1.907592931491322190e+02,1.906917096110599914e+02,1.906052092483173510e+02,1.905032162130547704e+02,1.903926952234924102e+02,1.902817594842373410e+02,1.901788220288943876e+02,1.900912941624953021e+02,1.900255961042222452e+02,1.899845917398904476e+02,1.899673701541379671e+02,1.899703985735352489e+02,1.899884324994152962e+02,1.900145922016902205e+02,1.900410355974366325e+02,1.900610598129764810e+02,1.900690070768449687e+02,1.900610159435811397e+02,1.900343019265336011e+02,1.899884961557948202e+02,1.899247790532657802e+02,1.898460562368711919e+02,1.897585317946963528e+02,1.896706342398301217e+02,1.895918689407142779e+02,1.895323476347947462e+02,1.895019675531977725e+02,1.895104647528955297e+02,1.895637523005930518e+02,1.896615175631326338e+02,1.897988547705873543e+02,1.899663208004658657e+02,1.901532243158627011e+02,1.903466996367749573e+02,1.905366339138961962e+02,1.907176018329744522e+02,1.908879763167491603e+02,1.910458325381435145e+02,1.911885051534838453e+02,1.913135984181548963e+02,1.914111936363507311e+02,1.914808329240946136e+02,1.915111034943441837e+02,1.915023190693664787e+02,1.914476339249218881e+02,1.913525308214801726e+02,1.912316095449162674e+02,1.910795272109193661e+02,1.909137115138370007e+02,1.907384036062543657e+02,1.905771742360755923e+02,1.904308322722460787e+02,1.902995599199824710e+02,1.901929693543245037e+02,1.901082137495186828e+02,1.900469900027333097e+02,1.900002079014114145e+02,1.899701714112833315e+02,1.899553224721233562e+02,1.899533364740370587e+02,1.899612987379255458e+02,1.899750870079183187e+02,1.899901855295912583e+02,1.900013471588030711e+02,1.900050826230361736e+02,1.899987574208334422e+02,1.899807283167437788e+02,1.899520306210980323e+02,1.899153932095347272e+02,1.898752263373390861e+02,1.898361713325108724e+02,1.898034351323661042e+02,1.897823667384803912e+02
1.919953292124469897e+02,1.919762188011945057e+02,1.919708844467970152e+02,1.919762287043596416e+02,1.919859340678463866e+02,1.919902995155441658e+02,1.919802978319500539e+02,1.919503752298499535e+02,1.918968635404011422e+02,1.918212374385072394e+02,1.917286248430911257e+02,1.916315575786124441e+02,1.915407641798026646e+02,1.914599529567484524e+02,1.913930146149835139e+02,1.913403162257053225e+02,1.913034785778487219e+02,1.912756717544353648e+02,1.912512375886259406e+02,1.912279196767216263e+02,1.912028581450890954e+02,1.911751337990196191e+02,1.911432969367024555e+02,1.911115183120963366e+02,1.910852349706543407e+02,1.910706843298787021e+02,1.910741945839237133e+02,1.910995262247248263e+02,1.911471421949592866e+02,1.912118238362894260e+02,1.912847202060791858e+02,1.913546984757480800e+02,1.914095770471839444e+02,1.914392581599735195e+02,1.914373951287151954e+02,1.914047517314254776e+02,1.913475956595006835e+02,1.912759830672870009e+02,1.912018941934367433e+02,1.911360412865990952e+02,1.910860176524061274e+02,1.910537696088320843e+02,1.910359253248702487e+02,1.910249296037058571e+02,1.910107434489990794e+02,1.909840219054614181e+02,1.909377771205340650e+02,1.908690807753150125e+02,1.907786358693217039e+02,1.906713610985244998e+02,1.905554630635510307e+02,1.904401368694080929e+02,1.903341129114768933e+02,1.902441832431788384e+02,1.901756152777442423e+02,1.901298831078520379e+02,1.901051133982155932e+02,1.900972887994507232e+02,1.901016879859555786e+02,1.901131017880043430e+02,1.901259367572805274e+02,1.901356498059785736e+02,1.901377338658904250e+02,1.901285608965415292e+02,1.901046870843915428e+02,1.900644676692933217e+02,1.900073344297998119e+02,1.899344737393588503e+02,1.898507841388426414e+02,1.897642329297283652e+02,1.896841182168265050e+02,1.896206574843207875e+02,1.895840101100691300e+02,1.895847197148499390e+02,1.896301083192078636e+02,1.897209927313164428e+02,1.898536072597686371e+02,1.900190300677480764e+02,1.902070357865455890e+02,1.904046623195333439e+02,1.906009962684114498e+02,1.907895594876985683e+02,1.909680259607988546e+02,1.911343973266910723e+02,1.912862329027646524e+02,1.914211234491788787e+02,1.915294179185999610e+02,1.916104088473656191e+02,1.916521516500865516e+02,1.916540699110150570e+02,1.916086133311135598e+02,1.915207160152140204e+02,1.914043330178371320e+02,1.912548162133152516e+02,1.910901311052137146e+02,1.909146967920211182e+02,1.907512856499799341e+02,1.906003351222517495e+02,1.904622465674091529e+02,1.903465041516812164e+02,1.902504878166302831e+02,1.901768308360807396e+02,1.901179084721876791e+02,1.900772221646045921e+02,1.900536279229851004e+02,1.900447638808872739e+02,1.900474198272538047e+02,1.900569425493808922e+02,1.900684463096625620e+02,1.900762909947983132e+02,1.900770012105762987e+02,1.900679721166761738e+02,1.900475031233581262e+02,1.900162927599473619e+02,1.899765696324358828e+02,1.899322671649159133e+02,1.898874473530833029e+02,1.898470397540239674e+02,1.898163711496505357e+02
1.920507483839796805e+02,1.920410325071500495e+02,1.920433085041496497e+02,1.920550679161931100e+02,1.920702972158443629e+02,1.920794504672788889e+02,1.920736858283359538e+02,1.920475045099639146e+02,1.919972126560140850e+02,1.919240046729640596e+02,1.918327278571667591e+02,1.917357865830603032e+02,1.916440088384630371e+02,1.915613036064600578e+02,1.914917490444546786e+02,1.914363268847459096e+02,1.913972116376646397e+02,1.913679321134058000e+02,1.913425393187779662e+02,1.913187285551700825e+02,1.912938034864227177e+02,1.912669289272932929e+02,1.912363681879737385e+02,1.912055610315123317e+02,1.911794797264418833e+02,1.911634815788099502e+02,1.911629788406801254e+02,1.911808093563900286e+02,1.912172439430304394e+02,1.912677566443314277e+02,1.913246654256424506e+02,1.913785432666339261e+02,1.914192219187408455e+02,1.914387418648956043e+02,1.914326636850160810e+02,1.914029518221434500e+02,1.913561411905075147e+02,1.913014399753261046e+02,1.912490187862539699e+02,1.912073983919498232e+02,1.911817839949092104e+02,1.911718109680847419e+02,1.911722825731187640e+02,1.911746570280159858e+02,1.911687725117613468e+02,1.911455449822707351e+02,1.910986403638811453e+02,1.910263325824010963e+02,1.909307417349502600e+02,1.908181875985652312e+02,1.906979406041182870e+02,1.905800378862236641e+02,1.904733117528574837e+02,1.903836720236264455e+02,1.903149727699600930e+02,1.902671382788926167e+02,1.902371497924769130e+02,1.902202514104573652e+02,1.902119849324052723e+02,1.902086041356823216e+02,1.902066216685320512e+02,1.902035789556320822e+02,1.901963201389696394e+02,1.901818529028392391e+02,1.901566341033523884e+02,1.901183391178988700e+02,1.900653035782983125e+02,1.899975172837114883e+02,1.899187673394077081e+02,1.898365085697652148e+02,1.897595514674204651e+02,1.896975928988121041e+02,1.896601927129568139e+02,1.896577101211985621e+02,1.896981026719821557e+02,1.897827611030878359e+02,1.899088928043203737e+02,1.900686053944858429e+02,1.902529080554863015e+02,1.904497822293153035e+02,1.906483145013033038e+02,1.908416607723928848e+02,1.910268900726076708e+02,1.912015852531957307e+02,1.913630393336956956e+02,1.915083208294411463e+02,1.916276642017129177e+02,1.917198361696715949e+02,1.917727714598353259e+02,1.917853682614551474e+02,1.917497097530389567e+02,1.916702360146890669e+02,1.915605411696348881e+02,1.914168088425105054e+02,1.912569936956598440e+02,1.910852678844834713e+02,1.909233130986887090e+02,1.907713201703690231e+02,1.906296576211556157e+02,1.905075036982970005e+02,1.904026021072004937e+02,1.903186600189407898e+02,1.902495201690402382e+02,1.901996270750785243e+02,1.901681808802273963e+02,1.901526922367173711e+02,1.901495807324870952e+02,1.901536301167650436e+02,1.901596842387121740e+02,1.901619710407309469e+02,1.901573404415311188e+02,1.901436142712988726e+02,1.901194560726552822e+02,1.900855092482496502e+02,1.900436232022977379e+02,1.899971544534401175e+02,1.899493564114050628e+02,1.899045290602741716e+02,1.898675187962363111e+02
1.920614274051002894e+02,1.920614466543310073e+02,1.920720395354431105e+02,1.920913782396569900e+02,1.921139368181455325e+02,1.921305262939885949e+02,1.921325570175991118e+02,1.921144492332755362e+02,1.920722048165094407e+02,1.920063320110581060e+02,1.919209075548249075e+02,1.918277095812956929e+02,1.917373347290125309e+02,1.916538345129263234e+02,1.915815936252575966e+02,1.915225073527631707e+02,1.914797215813090929e+02,1.914476725719008243e+02,1.914206229112688789e+02,1.913965085580660741e+02,1.913728908188541595e+02,1.913488721894540276e+02,1.913221533347522723e+02,1.912950525233435997e+02,1.912717306536245587e+02,1.912565221593839055e+02,1.912539447427716368e+02,1.912660631994684763e+02,1.912930867633909031e+02,1.913312527631397870e+02,1.913740400151690153e+02,1.914136001897931010e+02,1.914415778645721389e+02,1.914519170682687843e+02,1.914419243505375050e+02,1.914146856067596900e+02,1.913769223247190041e+02,1.913369110341047019e+02,1.913030197195603535e+02,1.912816883646734141e+02,1.912758866342261399e+02,1.912831225760169502e+02,1.912966465899650643e+02,1.913073434800962218e+02,1.913052940008641087e+02,1.912820160122629716e+02,1.912320424269020975e+02,1.911549863263320788e+02,1.910544040245376038e+02,1.909378296479472112e+02,1.908153560695911892e+02,1.906975104017988656e+02,1.905929577366788408e+02,1.905064934440158595e+02,1.904404078041211221e+02,1.903930623131368236e+02,1.903602458988658555e+02,1.903364140357037684e+02,1.903172171834348205e+02,1.903001645111074538e+02,1.902836086148288643e+02,1.902669051700929401e+02,1.902482603785274193e+02,1.902255554101575967e+02,1.901956343641984972e+02,1.901560540051853252e+02,1.901047102026202822e+02,1.900409742238016975e+02,1.899677579328738091e+02,1.898919696081364918e+02,1.898216647277119193e+02,1.897654939890020103e+02,1.897317030588941691e+02,1.897296147016358816e+02,1.897672072431511481e+02,1.898459803717299792e+02,1.899639516982226155e+02,1.901146108041560296e+02,1.902908647342712811e+02,1.904825435884146714e+02,1.906793665673305611e+02,1.908746737691070905e+02,1.910649456821582248e+02,1.912471000076818939e+02,1.914176066622587769e+02,1.915725107098718638e+02,1.917018354950062644e+02,1.918037650032309500e+02,1.918666596835069811e+02,1.918891080346514855e+02,1.918632387671297010e+02,1.917931543308151845e+02,1.916919859347771080e+02,1.915567291245604338e+02,1.914047650067705035e+02,1.912399906396595952e+02,1.910828649093999445e+02,1.909334738091101542e+02,1.907921357203869661e+02,1.906675409707033566e+02,1.905578385115082938e+02,1.904675502997890817e+02,1.903917556964192102e+02,1.903354212190704118e+02,1.902979605157449896e+02,1.902767221843956804e+02,1.902677773195999862e+02,1.902654884338227532e+02,1.902646068003191999e+02,1.902595459809146803e+02,1.902476905301457464e+02,1.902275936907965956e+02,1.901985970046937098e+02,1.901615513058695512e+02,1.901180595598449372e+02,1.900708789974140416e+02,1.900223570832372104e+02,1.899758845012565018e+02,1.899354506278013446e+02
1.920311936456779449e+02,1.920401604860566351e+02,1.920585885917219571e+02,1.920853002336614281e+02,1.921154532980492320e+02,1.921405242296929998e+02,1.921523749313330995e+02,1.921453161596078019e+02,1.921148553607154668e+02,1.920604693877402269e+02,1.919850193572983414e+02,1.918991185242605866e+02,1.918127516283167893e+02,1.917300404366930309e+02,1.916557121813935964e+02,1.915927959388770034e+02,1.915456608219205350e+02,1.915100993315429889e+02,1.914810328960487027e+02,1.914568470200763670e+02,1.914354339415161803e+02,1.914156317668532097e+02,1.913943863006557535e+02,1.913726226358217559e+02,1.913534402700982184e+02,1.913401323997356087e+02,1.913365073404248164e+02,1.913442382637683750e+02,1.913637154567530843e+02,1.913920240406947073e+02,1.914237366742856921e+02,1.914523339033702598e+02,1.914708234093158126e+02,1.914745178965007710e+02,1.914620302759446417e+02,1.914373003725194735e+02,1.914071164492088997e+02,1.913788370870885274e+02,1.913592588138081965e+02,1.913530989854529309e+02,1.913615212691300940e+02,1.913803208887941594e+02,1.914015884762823987e+02,1.914160346836960116e+02,1.914142802237217040e+02,1.913886819165231259e+02,1.913347212242096020e+02,1.912532984112894496e+02,1.911492534936002130e+02,1.910310271098129533e+02,1.909091837311311792e+02,1.907943256800899405e+02,1.906946836135991816e+02,1.906138204846822646e+02,1.905524716538125745e+02,1.905075848540338370e+02,1.904738900756012754e+02,1.904451699708862407e+02,1.904171132498976817e+02,1.903882736961639068e+02,1.903584833493821122e+02,1.903285293558302840e+02,1.902978176319704176e+02,1.902651781668768933e+02,1.902281896956517642e+02,1.901847600330709156e+02,1.901329721551602461e+02,1.900721444717817974e+02,1.900046197466770366e+02,1.899367316013465370e+02,1.898755672216696269e+02,1.898282799464645905e+02,1.898012253728585677e+02,1.898020009572682056e+02,1.898380935564586025e+02,1.899108636879399228e+02,1.900190818061851985e+02,1.901579285271811557e+02,1.903226950334957905e+02,1.905057549748132431e+02,1.906978908699105091e+02,1.908928002591784718e+02,1.910861742445078448e+02,1.912740104801773100e+02,1.914515172739223203e+02,1.916133114594187248e+02,1.917492663689347694e+02,1.918573245430904990e+02,1.919269081572894038e+02,1.919566070208013002e+02,1.919389798382817673e+02,1.918781324554188643e+02,1.917866182964502286e+02,1.916619935407523201e+02,1.915207062641933931e+02,1.913663696036058468e+02,1.912182100035452947e+02,1.910760837398387082e+02,1.909402105522988506e+02,1.908186391014780554e+02,1.907097745235268746e+02,1.906185661316367543e+02,1.905409527314319291e+02,1.904820909929936192e+02,1.904414898539998831e+02,1.904163696209272985e+02,1.904025212541889687e+02,1.903940870519484463e+02,1.903858980049639058e+02,1.903728021405122774e+02,1.903528024554794911e+02,1.903253393054327205e+02,1.902906403429428508e+02,1.902499874691764319e+02,1.902048851327123771e+02,1.901575635602299599e+02,1.901095203561758638e+02,1.900630936246692784e+02,1.900211566964184158e+02
1.919662211806183905e+02,1.919827471325511397e+02,1.920077270481530149e+02,1.920404793358334246e+02,1.920769830354101373e+02,1.921097314543124526e+02,1.921314190229735175e+02,1.921364287256373586e+02,1.921196922499006803e+02,1.920795084052805066e+02,1.920172576356215757e+02,1.919419450256217488e+02,1.918624404772451442e+02,1.917827447522562352e+02,1.917078869297399990e+02,1.916420272637773508e+02,1.915907715689746453e+02,1.915515512307180188e+02,1.915204402327547086e+02,1.914965102774146999e+02,1.914780290799500904e+02,1.914634084467369348e+02,1.914487178424170111e+02,1.914332857411596081e+02,1.914188770357244209e+02,1.914077399002233619e+02,1.914032564152555835e+02,1.914072298428344538e+02,1.914206045019364524e+02,1.914415081719074578e+02,1.914656163762951451e+02,1.914874784631693956e+02,1.915009100588863475e+02,1.915018769091295212e+02,1.914896449458966288e+02,1.914684991246472521e+02,1.914450340972235836e+02,1.914257145347002620e+02,1.914160914673324783e+02,1.914196492561403318e+02,1.914363171006451410e+02,1.914608180384912259e+02,1.914846301114326934e+02,1.914987235944532529e+02,1.914945308578695631e+02,1.914654268670239219e+02,1.914078582947694542e+02,1.913237799145924782e+02,1.912190013189531612e+02,1.911024290610831429e+02,1.909846335462549973e+02,1.908757976079806724e+02,1.907834231957578197e+02,1.907098442516503667e+02,1.906543876253743690e+02,1.906128810600592942e+02,1.905793098209200025e+02,1.905470940346555437e+02,1.905120625874430118e+02,1.904736144052554891e+02,1.904326748026838629e+02,1.903910250145201246e+02,1.903489832739295764e+02,1.903062226490175703e+02,1.902611711212047680e+02,1.902124215233724271e+02,1.901587222726729749e+02,1.900997803041279894e+02,1.900376549573536522e+02,1.899781263061756817e+02,1.899272117150595705e+02,1.898902669585467606e+02,1.898714340549818189e+02,1.898762724365010399e+02,1.899114930681036526e+02,1.899782459728967865e+02,1.900760159120724779e+02,1.902018450677314263e+02,1.903536078503210263e+02,1.905264192703960475e+02,1.907122737370065124e+02,1.909050640104263721e+02,1.910994472224831782e+02,1.912902383500001804e+02,1.914711398640246216e+02,1.916352257679077979e+02,1.917723833465539656e+02,1.918809541626982593e+02,1.919520543180292407e+02,1.919847949709686077e+02,1.919725416919346515e+02,1.919197988332334717e+02,1.918384623913930227e+02,1.917262143752182908e+02,1.915983011077713911e+02,1.914579582090149188e+02,1.913231772587649004e+02,1.911933211096722971e+02,1.910684395419046666e+02,1.909558986788242407e+02,1.908541543913053999e+02,1.907681646565916651e+02,1.906943281316521848e+02,1.906377220382888424e+02,1.905978478658206541e+02,1.905717953162733806e+02,1.905551724549909238e+02,1.905420798578202835e+02,1.905275383017966533e+02,1.905069817383976840e+02,1.904790178125390980e+02,1.904440303366164926e+02,1.904031749380662575e+02,1.903583156943801669e+02,1.903110314409501029e+02,1.902631704855475334e+02,1.902155565674599131e+02,1.901694510433394498e+02,1.901265571959291378e+02
1.918761392795506708e+02,1.918984790778161482e+02,1.919281720143495704e+02,1.919648591426799555e+02,1.920054215718290607e+02,1.920436384657561177e+02,1.920733771391585947e+02,1.920893763990371781e+02,1.920860825818292028e+02,1.920606744594164752e+02,1.920130059584527373e+02,1.919502555520908800e+02,1.918797750838886600e+02,1.918052110744809795e+02,1.917317295654322606e+02,1.916644128926494659e+02,1.916098987694588516e+02,1.915673771598843302e+02,1.915345504087462700e+02,1.915114858229630102e+02,1.914968881110195298e+02,1.914886246498869298e+02,1.914817963219248043e+02,1.914739338937545199e+02,1.914650793687896737e+02,1.914562480035405088e+02,1.914506079095423843e+02,1.914506456871087323e+02,1.914583775662908920e+02,1.914733477529310335e+02,1.914925592667137835e+02,1.915115856096062430e+02,1.915246331716785164e+02,1.915276057167592398e+02,1.915196151134954050e+02,1.915045134296086076e+02,1.914882458380266428e+02,1.914762890096630201e+02,1.914732200954344421e+02,1.914817525504037974e+02,1.915011975496793752e+02,1.915260223078533670e+02,1.915477710195765439e+02,1.915581526865456397e+02,1.915496791436613648e+02,1.915168874876391385e+02,1.914571658159690912e+02,1.913731614462034258e+02,1.912711868264372868e+02,1.911600715278744644e+02,1.910498273511190064e+02,1.909497129642790014e+02,1.908662296930996547e+02,1.908005944475301305e+02,1.907509958667394017e+02,1.907125387273977140e+02,1.906789216675227863e+02,1.906436341580509293e+02,1.906028464242966720e+02,1.905566369566287790e+02,1.905066945896049901e+02,1.904553974046438043e+02,1.904036474073042200e+02,1.903517497566269299e+02,1.902989340041159494e+02,1.902446412150314927e+02,1.901885358752302011e+02,1.901309820986831198e+02,1.900739760550912081e+02,1.900227631651741262e+02,1.899822144108043744e+02,1.899557784046414497e+02,1.899453257346702912e+02,1.899543830387634387e+02,1.899887600446978979e+02,1.900494396656810068e+02,1.901366838308641718e+02,1.902494057367515552e+02,1.903880011815471960e+02,1.905500877681935208e+02,1.907288293620491118e+02,1.909180066916695182e+02,1.911109916973892950e+02,1.913011730747326453e+02,1.914806927763939939e+02,1.916412871301762095e+02,1.917730817593828476e+02,1.918755693852508273e+02,1.919420596866909818e+02,1.919729078180557167e+02,1.919626130150472818e+02,1.919164091552420359e+02,1.918455025137089365e+02,1.917471824804563596e+02,1.916353977118419039e+02,1.915126894277655083e+02,1.913958084638220782e+02,1.912832643727221011e+02,1.911748783312938258e+02,1.910773441679814937e+02,1.909889210680051974e+02,1.909142743891543432e+02,1.908499092100026928e+02,1.908006629115049577e+02,1.907658902786896817e+02,1.907425494187728816e+02,1.907261252517762955e+02,1.907108075644963776e+02,1.906918486806360988e+02,1.906653207527516827e+02,1.906304012471704254e+02,1.905883778342272024e+02,1.905412898720381918e+02,1.904916459257127030e+02,1.904412672399845405e+02,1.903918155978309130e+02,1.903436620140874709e+02,1.902970923969888872e+02,1.902527314082354906e+02
1.917675574176615498e+02,1.917942619568087821e+02,1.918274624847697680e+02,1.918668979958498539e+02,1.919100999574210107e+02,1.919520458580798561e+02,1.919878111020277629e+02,1.920127311592576689e+02,1.920209550516818524e+02,1.920087416412067967e+02,1.919746604223815893e+02,1.919241677306204110e+02,1.918629742261035744e+02,1.917941604326648246e+02,1.917228466070701813e+02,1.916548114470566588e+02,1.915975196286695166e+02,1.915519639357293045e+02,1.915178301285837392e+02,1.914964744353006267e+02,1.914870706354331276e+02,1.914868289801259778e+02,1.914897075604045540e+02,1.914911595423828885e+02,1.914890344847408983e+02,1.914827783754547283e+02,1.914754443637440033e+02,1.914706263321594975e+02,1.914719719733313923e+02,1.914809474416415753e+02,1.914963400369635167e+02,1.915150056380348360e+02,1.915313477258312673e+02,1.915406975319581591e+02,1.915412287006543863e+02,1.915355579036879590e+02,1.915284001696132350e+02,1.915239895058530806e+02,1.915260671730787010e+02,1.915368691742838791e+02,1.915556055564448172e+02,1.915771808578127491e+02,1.915938209783854518e+02,1.915983958713501352e+02,1.915847134280104456e+02,1.915486060951074592e+02,1.914884011816072871e+02,1.914071314296082278e+02,1.913111921371413189e+02,1.912088271202521526e+02,1.911089815948908779e+02,1.910195185769670161e+02,1.909456811728709056e+02,1.908877225102969817e+02,1.908430082616705761e+02,1.908063711252913777e+02,1.907716719616156524e+02,1.907329526392768742e+02,1.906869736856366444e+02,1.906343513980363582e+02,1.905772448470748941e+02,1.905182763088890283e+02,1.904586925843593690e+02,1.903991975760949060e+02,1.903396998597279435e+02,1.902805435340728195e+02,1.902223602144632935e+02,1.901662854042802735e+02,1.901143305163139132e+02,1.900712604228807550e+02,1.900407863698042661e+02,1.900244630889320376e+02,1.900220539412636924e+02,1.900352275707272725e+02,1.900689232486667493e+02,1.901239565409595116e+02,1.902013887391649405e+02,1.903018779157946199e+02,1.904280882087499549e+02,1.905796821672716987e+02,1.907507723687718908e+02,1.909347302435331244e+02,1.911234712110596661e+02,1.913088734890562819e+02,1.914816393346928862e+02,1.916326323498599891e+02,1.917525714938505814e+02,1.918428198518757029e+02,1.918992849134060634e+02,1.919241953666611380e+02,1.919134224595540275e+02,1.918730139280977482e+02,1.918133297234036263e+02,1.917307040854911122e+02,1.916376570961191987e+02,1.915356686432618289e+02,1.914401948036601766e+02,1.913486433564338540e+02,1.912606628938276856e+02,1.911824188174669530e+02,1.911118577360772974e+02,1.910531575860030671e+02,1.910026881329921480e+02,1.909649621029714979e+02,1.909390679575422212e+02,1.909218235541250976e+02,1.909086190888025953e+02,1.908938528589473833e+02,1.908730107697225549e+02,1.908427742938306721e+02,1.908027855271298279e+02,1.907550638620463133e+02,1.907024113984010683e+02,1.906479333815044583e+02,1.905938288556396003e+02,1.905417638016105286e+02,1.904919171949895826e+02,1.904438396457622105e+02,1.903972445085198615e+02
1.916488833721446667e+02,1.916786880469074390e+02,1.917148189323824568e+02,1.917568780905626795e+02,1.918026028507860872e+02,1.918476795231920278e+02,1.918880886449586285e+02,1.919197124923069850e+02,1.919366107827521830e+02,1.919344031834942825e+02,1.919108323977073951e+02,1.918700777712145396e+02,1.918164497964107795e+02,1.917524874603008698e+02,1.916830678560868364e+02,1.916144195609640519e+02,1.915545828945913343e+02,1.915062889050024921e+02,1.914713309271275818e+02,1.914525114382218760e+02,1.914495469088226116e+02,1.914589633600571403e+02,1.914734529928887525e+02,1.914860714799720824e+02,1.914919914109263175e+02,1.914886575138438047e+02,1.914788938706530530e+02,1.914675270874180057e+02,1.914602317385639481e+02,1.914610117802213836e+02,1.914711738062802340e+02,1.914894308670529313e+02,1.915105746132356046e+02,1.915293161718920487e+02,1.915424065675655356e+02,1.915504219486921897e+02,1.915560216749987887e+02,1.915617176329506322e+02,1.915702889764109500e+02,1.915835009231103072e+02,1.916007179372718099e+02,1.916177930454657599e+02,1.916282082672968272e+02,1.916263262237988556e+02,1.916074370209496465e+02,1.915687335822652813e+02,1.915095162005584939e+02,1.914330252073887380e+02,1.913454030827226404e+02,1.912539425759823928e+02,1.911661129818830034e+02,1.910880745404249694e+02,1.910236273754845513e+02,1.909722203409780263e+02,1.909307436566158742e+02,1.908941889662268068e+02,1.908570074902686997e+02,1.908141955244020380e+02,1.907633114736528341e+02,1.907053697155671443e+02,1.906427273958575483e+02,1.905779942535649809e+02,1.905125709199660946e+02,1.904473583214764574e+02,1.903827664381525437e+02,1.903199879475108673e+02,1.902605535040955829e+02,1.902063190886571817e+02,1.901593156843462111e+02,1.901238419735170453e+02,1.901025462352388615e+02,1.900952091251429010e+02,1.900997167286059835e+02,1.901160624806854003e+02,1.901483866243091825e+02,1.901974409516070921e+02,1.902650714484672676e+02,1.903536092109499691e+02,1.904677440249411688e+02,1.906088693482477083e+02,1.907717438030940968e+02,1.909489793967486833e+02,1.911309213007604342e+02,1.913079210008808104e+02,1.914694527920618441e+02,1.916059340376622231e+02,1.917090998041597061e+02,1.917828142446459765e+02,1.918258103750132477e+02,1.918425428889864861e+02,1.918303138572646844e+02,1.917959225203806568e+02,1.917486965775680687e+02,1.916834626198773890e+02,1.916112438022784943e+02,1.915321328545920494e+02,1.914602777818875552e+02,1.913918088981273797e+02,1.913263237091078963e+02,1.912696988135182892e+02,1.912195596700287581e+02,1.911795787210064361e+02,1.911458557868106425e+02,1.911226037370883830e+02,1.911085048862498468e+02,1.911002104021707737e+02,1.910929939024020143e+02,1.910815191915248477e+02,1.910614770349799301e+02,1.910300391172820014e+02,1.909872106452174023e+02,1.909355455103281258e+02,1.908784542777358411e+02,1.908195461676874629e+02,1.907614559183340361e+02,1.907060515829835481e+02,1.906535509096715089e+02,1.906030427427061795e+02,1.905535678151753132e+02
1.915271496285836577e+02,1.915595639645927122e+02,1.915993215380059098e+02,1.916455257939441879e+02,1.916954245243221635e+02,1.917446243943297475e+02,1.917893976127700455e+02,1.918258977980021882e+02,1.918482590215294863e+02,1.918518967929770724e+02,1.918343538342168699e+02,1.917991759531730622e+02,1.917497755513373079e+02,1.916883698484676302e+02,1.916195232483171651e+02,1.915496333932515824e+02,1.914870825685077875e+02,1.914362200377196359e+02,1.914008747062270572e+02,1.913852526157475040e+02,1.913896068733237428e+02,1.914098529057684175e+02,1.914373849032757562e+02,1.914625959463772347e+02,1.914776100554256573e+02,1.914774924065100379e+02,1.914645242274125678e+02,1.914445322679119954e+02,1.914252995842103076e+02,1.914139746930392221e+02,1.914151804353703881e+02,1.914302463287632747e+02,1.914549705423922887e+02,1.914839931968270719e+02,1.915126898116666325e+02,1.915388693354747147e+02,1.915622069743110956e+02,1.915827870197453819e+02,1.916019927259888789e+02,1.916206898595015673e+02,1.916382250680513266e+02,1.916517071415032376e+02,1.916563650847442091e+02,1.916483953087657710e+02,1.916247564099811314e+02,1.915841055674949303e+02,1.915268026729648341e+02,1.914562191518517125e+02,1.913780408228421663e+02,1.912983625022242222e+02,1.912229190765966393e+02,1.911560092349211004e+02,1.910999420391200374e+02,1.910535251079845978e+02,1.910134612914465890e+02,1.909752484133097994e+02,1.909342626155740845e+02,1.908867422586164366e+02,1.908311504916805461e+02,1.907687728301060588e+02,1.907019628575945660e+02,1.906331279684310402e+02,1.905636732588626217e+02,1.904945030882564652e+02,1.904263637099888911e+02,1.903611750883339937e+02,1.903012230424735662e+02,1.902489465129915232e+02,1.902063841502430819e+02,1.901773900950248617e+02,1.901636636607380808e+02,1.901633447886669046e+02,1.901726937225891163e+02,1.901902519376407383e+02,1.902194068242370122e+02,1.902610105659907731e+02,1.903177155528648541e+02,1.903936212201017781e+02,1.904952575913833641e+02,1.906255316401380355e+02,1.907796629737760554e+02,1.909492401654634932e+02,1.911230066202699618e+02,1.912896946361061623e+02,1.914377772908910629e+02,1.915575992601553708e+02,1.916420979150786650e+02,1.916979604109711772e+02,1.917266837724322102e+02,1.917351688485549630e+02,1.917220704994091420e+02,1.916947098747983773e+02,1.916613493230233871e+02,1.916149227485076381e+02,1.915650365832706541e+02,1.915100326011005620e+02,1.914627258918086739e+02,1.914179043200044248e+02,1.913751971303217374e+02,1.913404935940162090e+02,1.913111537168805114e+02,1.912905695850148504e+02,1.912745820806366339e+02,1.912672346968190027e+02,1.912667072348671127e+02,1.912694154321924316e+02,1.912704555819286156e+02,1.912646913229555707e+02,1.912479586733761323e+02,1.912177562775271440e+02,1.911743926119391688e+02,1.911207827385020437e+02,1.910608017870316644e+02,1.909984426844843313e+02,1.909367889313597857e+02,1.908780202507095964e+02,1.908225211144411162e+02,1.907691550717637767e+02,1.907165279214107159e+02
1.914066330715110098e+02,1.914417280415873961e+02,1.914865091619606119e+02,1.915393133370477585e+02,1.915962313507114629e+02,1.916519069341537431e+02,1.917021273715123471e+02,1.917428405587551765e+02,1.917683133864279057e+02,1.917741595839480624e+02,1.917583541218223786e+02,1.917245428736587201e+02,1.916758764359627776e+02,1.916145991185393029e+02,1.915449726019401169e+02,1.914732662029372250e+02,1.914079439474372748e+02,1.913547130800338039e+02,1.913192161980048525e+02,1.913069096461493075e+02,1.913185742079686520e+02,1.913497122024816690e+02,1.913905138451349330e+02,1.914286479442699545e+02,1.914530142007330937e+02,1.914560555754203790e+02,1.914390981432546255e+02,1.914084912656403787e+02,1.913739384417116867e+02,1.913461264185874597e+02,1.913336234643836633e+02,1.913410542463311117e+02,1.913660052830643679e+02,1.914039206982808992e+02,1.914492698713960408e+02,1.914967027760972371e+02,1.915421854608380556e+02,1.915827208692950876e+02,1.916177518956483539e+02,1.916465781416042944e+02,1.916680346047606349e+02,1.916804817421516702e+02,1.916811918987006891e+02,1.916684415545784930e+02,1.916409966626940218e+02,1.915990860863836645e+02,1.915442402235988482e+02,1.914800016597485524e+02,1.914114997630618689e+02,1.913435380342444319e+02,1.912800264373629489e+02,1.912234051296193513e+02,1.911745500138152352e+02,1.911317527618436145e+02,1.910917206225641394e+02,1.910506438235006215e+02,1.910050050244970805e+02,1.909524220004882125e+02,1.908922957780004026e+02,1.908260921306838043e+02,1.907560459801415220e+02,1.906842635594657906e+02,1.906120726539795101e+02,1.905402487191959153e+02,1.904697244314307909e+02,1.904029671123558387e+02,1.903428333186666066e+02,1.902921624004233081e+02,1.902529337379359617e+02,1.902285335416906662e+02,1.902198144287382320e+02,1.902235270404595440e+02,1.902346201639131493e+02,1.902504958044642933e+02,1.902738736407194438e+02,1.903058435506868307e+02,1.903498901153968177e+02,1.904119100722629696e+02,1.905000750694247245e+02,1.906185663476088621e+02,1.907630366076098483e+02,1.909241504642545237e+02,1.910892578194368525e+02,1.912454662894899968e+02,1.913804349817948491e+02,1.914847122115746458e+02,1.915523592953480545e+02,1.915926532691808291e+02,1.916094635819836185e+02,1.916120864811908007e+02,1.916003711842545272e+02,1.915818506894138977e+02,1.915637867496662921e+02,1.915371241288727049e+02,1.915101423155903149e+02,1.914792141120810527e+02,1.914558358295840890e+02,1.914335888761393107e+02,1.914122244739037910e+02,1.913979207966695810e+02,1.913879496801450273e+02,1.913857343423111956e+02,1.913869492198023750e+02,1.913955495363381090e+02,1.914091333605784371e+02,1.914238067322269785e+02,1.914344178562189143e+02,1.914359239371360957e+02,1.914242618581789372e+02,1.913971345295892945e+02,1.913551471569494993e+02,1.913014445015961371e+02,1.912402362615453058e+02,1.911757836347424586e+02,1.911115755408079622e+02,1.910501383798567758e+02,1.909920396660574795e+02,1.909360657232843153e+02,1.908805664374584694e+02
1.912884977015636423e+02,1.913266613418985855e+02,1.913781899555988844e+02,1.914404878931561029e+02,1.915079485076266792e+02,1.915734490937538226e+02,1.916314536438310654e+02,1.916771476392544002e+02,1.917049314759445622e+02,1.917108810579135252e+02,1.916938928105883804e+02,1.916583672335389394e+02,1.916078784817682390e+02,1.915450718661055021e+02,1.914739052963497841e+02,1.914002900764001254e+02,1.913325066408982877e+02,1.912772556077846957e+02,1.912416060918746155e+02,1.912320412251002040e+02,1.912499302735951403e+02,1.912906461488297509e+02,1.913434401470354658e+02,1.913934703358756906e+02,1.914265211906213722e+02,1.914323450253741044e+02,1.914108432937780435e+02,1.913682852336891074e+02,1.913158706383704839e+02,1.912678566231633965e+02,1.912370192791914860e+02,1.912317210253735311e+02,1.912521068225389342e+02,1.912953431025492534e+02,1.913557188560881741e+02,1.914248205553308253e+02,1.914946638186128212e+02,1.915587948122607997e+02,1.916142459152990796e+02,1.916580893635043594e+02,1.916880128947605328e+02,1.917032750540521420e+02,1.917031330785838463e+02,1.916879538380777603e+02,1.916583034771390430e+02,1.916160389528463384e+02,1.915639569032498741e+02,1.915059250548422938e+02,1.914465618130611233e+02,1.913894636408915915e+02,1.913368387845419534e+02,1.912894300950787283e+02,1.912468200854666520e+02,1.912068478661108770e+02,1.911662974003758109e+02,1.911220865524587111e+02,1.910717882072518421e+02,1.910143299369767931e+02,1.909499756698710087e+02,1.908803173557535331e+02,1.908074379402312388e+02,1.907330940069148539e+02,1.906585198726340025e+02,1.905843566474158592e+02,1.905116672927666457e+02,1.904432830430922650e+02,1.903824432844814680e+02,1.903322450204385063e+02,1.902945785006245671e+02,1.902723225572966044e+02,1.902655628381678525e+02,1.902699804465737543e+02,1.902795602356202664e+02,1.902908680524117528e+02,1.903059779173165111e+02,1.903262258392956028e+02,1.903558491537920645e+02,1.904024090552610460e+02,1.904754835005430493e+02,1.905803363968297788e+02,1.907131894887016870e+02,1.908642757497410116e+02,1.910200914226129214e+02,1.911663964816944201e+02,1.912902416179887268e+02,1.913825256009579050e+02,1.914382149942033209e+02,1.914684561167820220e+02,1.914787268850074611e+02,1.914802674939274425e+02,1.914738410316956845e+02,1.914668807058509969e+02,1.914656682470114220e+02,1.914593158761158236e+02,1.914549712432782371e+02,1.914470559404289247e+02,1.914458532706420613e+02,1.914439648068310476e+02,1.914413953702993467e+02,1.914448091073004434e+02,1.914515770839784352e+02,1.914654246950836978e+02,1.914819633999263147e+02,1.915051123705183045e+02,1.915318705570573456e+02,1.915580246134278468e+02,1.915781557012132055e+02,1.915872737684308618e+02,1.915814331976388019e+02,1.915585012448307793e+02,1.915193798815979846e+02,1.914673331294161471e+02,1.914067992713523267e+02,1.913421649552175268e+02,1.912772060814112933e+02,1.912147275452433632e+02,1.911553973261994770e+02,1.910979743891176099e+02,1.910405955393148076e+02
1.911727256791552918e+02,1.912144112393246758e+02,1.912742424935910890e+02,1.913485635236813209e+02,1.914297834778286642e+02,1.915085108431592289e+02,1.915773286672703648e+02,1.916301609517259692e+02,1.916614421312963259e+02,1.916678007752055350e+02,1.916492952135019436e+02,1.916114556615464437e+02,1.915587221761210230e+02,1.914944422618102635e+02,1.914223334048481888e+02,1.913478209858143373e+02,1.912787303341232246e+02,1.912222761070526644e+02,1.911864406631488293e+02,1.911784330018114417e+02,1.912002644030767442e+02,1.912475223391890609e+02,1.913089526521629296e+02,1.913677644422094488e+02,1.914071314922844635e+02,1.914143971987222130e+02,1.913877387359444242e+02,1.913327301886928353e+02,1.912614522025959900e+02,1.911912903610028138e+02,1.911389722855892046e+02,1.911165432111288851e+02,1.911271659662237425e+02,1.911704712860924928e+02,1.912414171811954589e+02,1.913292038743469163e+02,1.914222638826062450e+02,1.915108195512279110e+02,1.915892701546665933e+02,1.916520120227535813e+02,1.916949427845639775e+02,1.917175355744828096e+02,1.917205860199788390e+02,1.917062233275579217e+02,1.916766238307040169e+02,1.916352008202544255e+02,1.915860923823325095e+02,1.915337395937771987e+02,1.914824371381635046e+02,1.914348390983314232e+02,1.913917673901057981e+02,1.913525528094387198e+02,1.913156468359999849e+02,1.912784105926793359e+02,1.912376791969907686e+02,1.911910129921632517e+02,1.911369274962084432e+02,1.910754608940021910e+02,1.910075929262221734e+02,1.909350099644092325e+02,1.908596104353982525e+02,1.907827598811389294e+02,1.907055658100129847e+02,1.906285861832938338e+02,1.905530112192704735e+02,1.904819202681151467e+02,1.904188414214658849e+02,1.903670776559812055e+02,1.903284525084327186e+02,1.903053269429115062e+02,1.902971472218352460e+02,1.902988526077216704e+02,1.903037933221012850e+02,1.903079274514502117e+02,1.903127234692719583e+02,1.903197258556362215e+02,1.903337701248237579e+02,1.903637725689803801e+02,1.904203901969916330e+02,1.905098354466996966e+02,1.906290635672113467e+02,1.907684377442125765e+02,1.909142418358112252e+02,1.910514830787085430e+02,1.911669428175864027e+02,1.912518907369929764e+02,1.913020115153766483e+02,1.913294487096492844e+02,1.913404335406136738e+02,1.913472206464619205e+02,1.913510492639931044e+02,1.913590030058356319e+02,1.913762013788264369e+02,1.913902428202362671e+02,1.914073012577568704e+02,1.914203010080326521e+02,1.914384950699420926e+02,1.914537956840165123e+02,1.914666655017277890e+02,1.914843303682297062e+02,1.915044410446018048e+02,1.915311184385943761e+02,1.915600127197014331e+02,1.915950302088890567e+02,1.916326644173300053e+02,1.916684803589614603e+02,1.916969047918020976e+02,1.917130428973929099e+02,1.917131378768401930e+02,1.916952147102280151e+02,1.916603943037016222e+02,1.916119328557874439e+02,1.915543389267832310e+02,1.914919455819931500e+02,1.914286222035030960e+02,1.913673159686341592e+02,1.913087000897038763e+02,1.912514722378835472e+02,1.911935203978389666e+02
1.910646206715618689e+02,1.911096461038494283e+02,1.911779243212783967e+02,1.912647247010658305e+02,1.913607205627230883e+02,1.914543096333614471e+02,1.915361688530679203e+02,1.915986884322022377e+02,1.916362740276919112e+02,1.916460789081960456e+02,1.916291962702676415e+02,1.915922061963769352e+02,1.915404074699356158e+02,1.914779684283606684e+02,1.914083410611689544e+02,1.913362509355571035e+02,1.912687297094155383e+02,1.912129456926630837e+02,1.911772612335320787e+02,1.911692001943572166e+02,1.911914366367471985e+02,1.912401845282442139e+02,1.913043345317423416e+02,1.913661344018551915e+02,1.914071286286668112e+02,1.914130402340456101e+02,1.913802998648729670e+02,1.913132466060284287e+02,1.912240238819623528e+02,1.911322511625042750e+02,1.910578134508483572e+02,1.910157959586415757e+02,1.910124760639851331e+02,1.910504533891229926e+02,1.911262294745095005e+02,1.912275189887731699e+02,1.913398228334617670e+02,1.914505328725215065e+02,1.915514773810632505e+02,1.916342879747743098e+02,1.916926738430843216e+02,1.917257223242536952e+02,1.917352760979047162e+02,1.917247641934708327e+02,1.916976584421313987e+02,1.916586592958576318e+02,1.916131196744298677e+02,1.915661658679737229e+02,1.915219165746383396e+02,1.914824153832098261e+02,1.914474805572816081e+02,1.914153959817242026e+02,1.913837063968283587e+02,1.913492918826171376e+02,1.913090255811851534e+02,1.912609424759945114e+02,1.912042992191241808e+02,1.911399627661039347e+02,1.910694743421627209e+02,1.909946180299583602e+02,1.909170824429246522e+02,1.908378357664890927e+02,1.907577794237046191e+02,1.906774357500941051e+02,1.905981030668471305e+02,1.905230075956003475e+02,1.904559225453961062e+02,1.904003421272284413e+02,1.903581383459817573e+02,1.903311905761261755e+02,1.903184431090163571e+02,1.903143938942133389e+02,1.903120651768861933e+02,1.903070319548749865e+02,1.903001620069839532e+02,1.902931426662602235e+02,1.902912501239431435e+02,1.903043839613822001e+02,1.903438561433385701e+02,1.904166275032990541e+02,1.905205268361355593e+02,1.906465991129762756e+02,1.907815487810646857e+02,1.909103009293659170e+02,1.910198166023956787e+02,1.911017344595408360e+02,1.911522923679379176e+02,1.911837340996481487e+02,1.912021812124979476e+02,1.912198825415963483e+02,1.912380610786073021e+02,1.912632920698257522e+02,1.912994058844977019e+02,1.913329941835170303e+02,1.913694988733404614e+02,1.914009522329008632e+02,1.914357430029591001e+02,1.914653445324786674e+02,1.914907550991674441e+02,1.915196250770740392e+02,1.915499371484253288e+02,1.915861914003785955e+02,1.916242149338311549e+02,1.916679491761661893e+02,1.917135599602704303e+02,1.917565724036849133e+02,1.917914403033086046e+02,1.918134395310664786e+02,1.918190930306990936e+02,1.918066019462281986e+02,1.917772140691456570e+02,1.917340341813411158e+02,1.916814340105628389e+02,1.916235324307498331e+02,1.915640506081081185e+02,1.915058997463986827e+02,1.914496647073926852e+02,1.913939715994099231e+02,1.913365149652960042e+02
